# .PCD v0.7 - Point Cloud Data file format
VERSION 0.7
FIELDS x y z intensity
SIZE 4 4 4 4
TYPE F F F F
COUNT 1 1 1 1
WIDTH 1353
HEIGHT 1
VIEWPOINT 0 0 0 1 0 0 0
POINTS 1353
DATA ascii
6.8130159 -3.781353 -0.4997105 32
7.9168539 -6.0619011 -0.58107167 16
4.0708299 -2.528034 0.27886939 18
3.978281 -2.7496388 0.19683051 27
10.524833 -6.5386863 -0.57767838 31
2.2424409 -1.3936462 0.32406199 23
2.8891726 -1.6055052 -0.13480151 9
6.3137131 -4.8396144 -0.27810287 35
2.5266123 -1.5708569 0.79703867 30
2.2749646 -1.574101 0.50427353 49
3.2870436 -2.0444782 -0.090235233 102
2.8683767 -1.989975 -1.6280656 29
2.801285 -1.5624269 -0.056125045 65
9.0363827 -6.2713547 -0.32054591 28
4.8300638 -3.0136325 -1.5939637 48
6.7241497 -4.6684184 -1.6375108 45
3.2813287 -2.0480754 -0.00016009808 6
6.7429948 -5.1873722 -0.099365592 24
9.7402029 -6.0795746 -1.7867819 14
6.3681841 -4.4229059 -0.98721904 31
3.1395998 -1.753281 0.020745754 35
2.9564507 -2.0540771 -0.021066904 33
10.439439 -6.5210667 -1.3263637 26
7.8506112 -6.0460448 -0.92535526 47
2.8622503 -1.7885802 0.07839632 24
5.2375274 -4.0350275 0.076719165 22
7.1899905 -4.4947457 -0.59327686 31
6.0260944 -4.1899767 -0.59945822 21
4.8997765 -2.7396152 0.16313422 20
5.9233346 -4.5666995 -0.43586183 25
2.9960506 -1.8743694 0.20566571 10
3.808409 -2.6509328 0.18885994 12
6.7807932 -4.2438717 -0.37294859 27
8.9818964 -6.254477 -0.5740332 30
2.2411721 -1.4031819 0.32454967 54
6.62675 -5.114542 -0.29263586 52
2.2987895 -1.6018848 0.51072979 34
3.2734683 -2.0511208 -0.090048552 17
2.849875 -1.9911709 -1.6213027 36
2.8100338 -1.5795472 -0.056404591 44
8.9205008 -6.2348599 -0.31716579 34
4.8461328 -3.046031 -1.6025908 45
6.6411266 -4.6434913 -1.621033 43
7.7966409 -6.0413857 -0.11520076 33
9.7657595 -6.1430016 -1.7953916 10
6.3592091 -4.449656 -0.98822868 33
3.3007619 -1.8584256 0.021854043 23
2.9496229 -2.0638695 -0.021066546 8
10.350436 -6.5132852 -1.3177916 15
7.7770162 -6.0305557 -0.9190315 42
3.1338072 -1.972755 0.086013675 12
7.7745266 -6.0307565 0.11417615 32
6.3706131 -4.4625945 -0.63527501 13
6.8010273 -3.8354826 -0.50073308 27
6.3836007 -4.9571776 -0.47099966 23
3.2090533 -2.0232491 0.22077179 8
4.195075 -2.9418762 0.2085439 18
10.290827 -6.4908047 -0.56724399 26
8.8978786 -6.2422037 -0.57005149 41
2.2362599 -1.4109961 0.32454979 52
2.4902637 -1.7469735 0.24820256 26
2.8085732 -1.5858319 -0.13154089 101
7.7608228 -6.0331726 -0.34364283 48
2.3949721 -1.51171 0.75873983 33
2.5089707 -1.7613931 0.55879045 13
6.2721772 -3.9606676 -0.1729154 42
2.8573778 -2.0120394 -1.6297555 32
2.8668497 -1.6253406 -0.057663798 21
8.8583612 -6.2398829 -0.31576633 47
4.8674712 -3.0843902 -1.6133748 38
6.5887952 -4.6429477 -1.6124012 60
7.7145462 -6.0231524 -0.11431205 30
9.7632046 -6.191453 -1.7990808 11
6.6768599 -4.7084732 -1.0402663 72
3.1652339 -1.7974291 0.021000385 23
8.8096733 -6.2124815 -0.063074946 23
7.729753 -6.0394034 -0.91605484 17
3.1940827 -2.0270836 0.087871909 23
3.9455392 -3.083792 0.058108211 13
10.210437 -6.4825339 -0.84621847 29
5.9293442 -4.1874876 0.12641895 22
11.870138 -6.7517276 -0.87576717 13
7.695694 -6.0214353 -0.56943297 12
8.8025665 -6.2212625 0.43872797 12
10.199532 -6.4855967 -0.56351703 31
8.8162308 -6.2332654 -0.56627929 45
2.7000577 -1.7175102 0.3927747 17
3.5808806 -2.5317156 0.35783005 12
6.2305717 -3.548244 -0.29241735 26
6.8385992 -5.3565707 -0.30367392 22
2.4350505 -1.5495182 0.77323174 13
2.4992852 -1.7683039 0.55807364 18
6.1260567 -3.8998761 -0.16927928 42
2.8237381 -2.0031209 -1.6145377 32
2.8438091 -1.6254125 -0.057311773 10
8.7517633 -6.210597 -0.3127352 34
4.8209772 -3.0785537 -1.6015097 41
6.5533724 -4.6522908 -1.6076915 34
7.6568127 -6.0190334 -0.11374986 37
9.7826023 -6.2493196 -1.8064601 11
6.2180076 -4.415823 -0.97104824 29
3.1557956 -1.8059261 0.020979524 30
8.7325172 -6.2038059 -0.062675595 21
7.6554341 -6.0244713 -0.90973037 41
4.8040514 -3.0724108 0.13246179 13
5.2704253 -4.1490254 0.077836394 13
6.7593689 -4.3246307 -0.56144613 22
8.730752 -6.207171 -0.87492365 39
2.9280729 -1.6776408 0.098067999 69
3.3993654 -2.4176455 0.072648048 27
11.747267 -6.7334757 -0.86834192 15
6.4680481 -5.0955215 -0.47983968 18
3.0603435 -1.9594693 0.21147847 16
3.2594676 -2.3198578 0.16283536 12
10.100598 -6.4698081 -0.55923098 12
8.7337017 -6.2184386 -0.56229722 30
2.2297094 -1.4287134 0.32503974 11
3.2087405 -2.2845907 0.32139814 32
6.4510322 -3.7021666 -0.3033362 19
5.8100991 -4.5821085 -0.25867355 18
2.1339045 -1.3678364 0.67903793 14
2.3780451 -1.6943728 0.53225231 20
6.2713161 -4.0216231 -0.17365855 19
2.8377285 -2.0272248 -1.6263717 27
2.8522661 -1.6428181 -0.057591319 12
7.0981135 -5.0725684 -0.25424236 13
4.7815866 -3.0757694 -1.5918031 46
6.506001 -4.651186 -1.5998445 46
7.5918527 -6.0109634 -0.11309469 45
9.6809692 -6.2320838 -1.7916974 12
8.6487026 -6.1875687 -1.3540096 12
3.3053842 -1.906878 0.022018313 63
8.6533375 -6.1908369 -0.062253237 27
10.007501 -6.4447403 -1.2826467 37
7.5667396 -5.9954104 -0.90154696 39
3.0054142 -1.9361575 0.083044052 13
7.5667734 -5.9975471 0.11204505 25
6.7416363 -4.3448596 -0.56116617 24
8.6442099 -6.1911802 -0.86841023 32
2.932586 -1.6938506 0.098416805 28
3.1438251 -2.2524667 0.067354798 11
11.620004 -6.7145252 -0.86066079 11
3.1306596 -2.0199347 0.21682394 7
3.23511 -2.3195772 0.16202235 15
9.9940252 -6.4508543 -0.5545727 14
8.6437778 -6.1999941 -0.55789661 33
2.2513907 -1.453717 0.3289386 7
3.1715899 -2.2748642 0.31847095 52
3.0927951 -1.7892776 -0.14571881 3
5.903626 -4.6893859 -0.26356381 10
2.1258714 -1.3731799 0.67800319 21
2.2314553 -1.6016965 0.50069046 24
6.2605987 -4.0456591 -0.17375094 27
2.8391049 -2.0439663 -1.6314431 29
3.3234684 -1.9304788 -0.067247629 12
8.5913925 -6.1874256 -0.30853832 13
4.7864399 -3.1037533 -1.5971948 50
6.441174 -4.6406093 -1.5880744 29
7.507237 -5.988863 -0.11215925 46
9.6414852 -6.2567682 -1.7886207 9
6.3672934 -4.5890479 -0.99933934 6
3.2987077 -1.9184041 0.022018909 36
7.2548966 -5.2306519 -0.052329183 16
9.913763 -6.4359002 -1.2736459 27
7.5011392 -5.9883165 -0.89633894 43
9.8910513 -6.4260516 -0.82527554 35
8.5665054 -6.1831551 -0.86287367 36
2.822711 -1.6442124 0.094931364 13
9.5811491 -5.5833235 -0.7111578 25
6.3231392 -5.0532975 -0.47169316 42
3.1068504 -2.0199666 0.21566236 6
3.2691116 -2.3612778 0.16413748 13
9.881011 -6.426878 -0.54954177 13
8.5670414 -6.1903582 -0.55433404 45
3.1535378 -2.2794664 0.31749535 39
2.9308724 -1.7099663 -0.13838363 6
2.1661532 -1.4104792 0.69249523 16
2.2829611 -1.6513796 0.5136025 20
2.8172798 -2.0432229 -1.6229897 27
4.7691288 -3.1162281 -1.5950373 54
5.5847888 -3.6505282 -0.00026845932 39
5.0854559 -4.0860109 -0.076189399 15
9.5931225 -6.2730784 -1.783699 13
2.9503756 -1.7296329 0.019734144 31
9.8246737 -6.4269252 -1.2650738 27
7.4367375 -5.979526 -0.89113092 46
7.4301634 -5.9763331 0.11065483 34
9.7917757 -6.4102702 -0.81885302 32
8.4836054 -6.1684747 -0.85668588 36
8.4674549 -6.1589527 0.18235624 28
6.3241229 -5.0903611 -0.47308844 44
8.4937086 -6.1826115 -0.55098093 27
2.2113056 -1.4498062 0.32455313 16
4.4379253 -3.2315218 0.44794261 9
11.299746 -6.6457248 -0.53462362 8
6.1469154 -4.9547911 -0.27599943 28
2.2096727 -1.449826 0.70802224 11
2.3789537 -1.7334985 0.53655708 37
9.7450266 -6.3966665 -0.27171612 21
2.7984216 -2.0444896 -1.6162268 33
2.7932844 -1.6486955 -0.056750655 17
8.4220924 -6.1552424 -0.30399197 40
4.7292676 -3.1137922 -1.5853306 45
6.3706241 -4.6576843 -1.5786573 37
9.5359592 -6.280942 -1.7769322 22
8.4104843 -6.1513023 -1.3267241 22
2.9236586 -1.7277111 0.019595981 45
8.4093885 -6.1527085 -0.060962677 27
9.7125254 -6.4020844 -1.2535019 33
7.3662977 -5.965344 -0.88517904 42
5.4884667 -3.6190891 0.15271449 14
5.2772479 -4.2750793 0.078814268 30
9.6894016 -6.3916783 -0.81215143 34
8.3955545 -6.1471143 -0.84984702 37
8.3889084 -6.1444592 0.18110347 30
7.1280065 -4.2190237 -0.53119105 32
5.7045398 -4.6245513 -0.42794305 30
3.0860076 -2.0372064 0.21519828 11
3.3073463 -2.4242096 0.16690397 15
9.6758633 -6.3900099 -0.5405978 35
6.9387374 -5.0878797 -0.45125884 22
3.1403766 -2.0746644 0.46197736 30
5.8900342 -4.3188658 0.59595668 18
7.0829334 -4.1973486 -0.33576924 5
6.0187068 -4.8844614 -0.27096778 65
2.3541565 -1.7274091 0.53225362 40
9.6537104 -6.3826332 -0.26975751 15
2.7945466 -2.0559075 -1.6179171 33
2.7878013 -1.6579492 -0.056750417 11
8.3404503 -6.1381087 -0.30177712 37
4.6932349 -3.1124268 -1.5767024 39
6.4056821 -4.7159915 -1.5912104 36
5.5131469 -3.6574991 -0.00026500225 102
7.3118343 -5.9572139 -0.11014748 24
6.7411418 -4.473917 -1.2590443 20
8.3357248 -6.1391578 -1.3181343 27
2.8423035 -1.6923754 0.019088387 41
8.3567381 -6.1568346 -0.060727596 8
9.621665 -6.388061 -1.2445012 35
7.2970886 -5.9494715 -0.87922728 43
4.6469851 -3.0863686 0.12958479 6
3.7938704 -3.0942795 0.056813359 19
9.591712 -6.3729844 -0.80572915 33
8.3291264 -6.1432533 -0.84528732 41
2.8262343 -1.6854787 0.095629454 8
8.3094816 -6.1309643 0.17985082 19
11.086333 -6.6143198 -0.82788843 20
5.7077336 -4.6585927 -0.4293384 21
6.5985208 -4.8703308 0.33380938 15
8.332531 -6.1524925 -0.54322731 60
3.3979034 -2.2610223 0.50096309 24
5.9985256 -4.9029098 -0.27082717 35
2.1064913 -1.4027267 0.67800415 14
2.3639348 -1.7473117 0.53584051 55
2.7786162 -2.0591741 -1.6128449 44
8.2675829 -6.129086 -0.29991174 36
4.7784209 -3.1929929 -1.6090555 41
6.2631626 -4.6448646 -1.5598247 57
5.0431104 -4.1381607 -0.076187253 18
6.7320547 -4.5018139 -1.2602736 24
8.262188 -6.1318312 -1.3100494 27
2.9903996 -1.7954361 0.020127416 17
6.5300522 -4.8462691 -0.047574997 15
9.5497265 -6.3884401 -1.2380719 11
7.2393413 -5.9445786 -0.87476313 42
3.80159 -3.1227362 0.057092547 48
9.4964609 -6.3575907 -0.79958582 36
8.24683 -6.1271143 -0.83909965 38
8.2463007 -6.1289158 0.17894638 10
10.967393 -6.5953746 -0.8207193 21
5.6906204 -4.679481 -0.42933756 26
6.609488 -4.9159498 0.33527458 10
8.2458315 -6.1353011 -0.53903615 46
3.1620855 -2.1208639 0.46733856 44
6.9678574 -4.1951556 -0.33169287 30
6.0029798 -4.9416032 -0.27180445 30
2.1112072 -1.4165294 0.68110991 6
2.3609772 -1.7579025 0.53655815 41
5.9798622 -4.0138965 -0.16787493 24
2.762336 -2.0628369 -1.6077726 45
6.5784831 -3.9763765 -0.13449085 27
8.190609 -6.1186681 -0.29792982 43
4.6868162 -3.1566906 -1.5820936 42
6.5288634 -4.879107 -1.6304395 24
7.188868 -5.9431214 -0.10893071 24
8.2057743 -6.1344995 -1.3044907 18
2.953315 -1.787225 0.019920111 23
3.9016058 -2.9177892 -0.028502584 11
7.1714764 -5.9329901 -0.86918312 48
9.4053173 -6.3441896 0.26353884 10
3.7716308 -3.1213477 0.056814551 37
9.4003267 -6.3432498 -0.79344261 27
6.5679755 -4.9172373 -0.67010677 36
2.8756473 -1.7429639 0.097721577 31
10.844158 -6.5755072 -0.81329417 24
3.9811926 -2.6884465 0.27957356 21
3.7871516 -2.8373423 0.19260812 26
9.399826 -6.3500695 -0.52885842 13
8.1700268 -6.1233201 -0.53547359 46
3.0016334 -2.2504506 0.30611181 12
10.795885 -6.5539608 -0.51505947 13
5.7140512 -4.7389989 -0.25950605 21
2.1373289 -1.6035867 0.48706305 12
5.9253659 -4.0088954 -0.16675562 16
2.7638097 -2.0790048 -1.6128441 46
5.8678098 -3.5748301 -0.12021554 13
8.1084976 -6.1015425 -0.29571486 39
4.6598339 -3.1622159 -1.5767007 46
6.5305958 -4.9160218 -1.6351465 31
5.0171733 -4.1758251 -0.076232433 39
3.0495036 -1.8600092 0.020612836 41
7.1017661 -5.9171972 -0.8632313 44
5.4638605 -3.7133486 0.15346038 13
3.7704778 -3.1415186 0.056954384 42
6.7885795 -4.6136928 -0.57428217 59
6.3860936 -4.8141966 -0.65317416 28
4.4088254 -2.6922936 0.15012741 5
2.9377747 -2.2154233 0.064083934 44
10.726913 -6.5531626 -0.80612516 24
4.0114021 -2.7292829 0.28236282 21
3.3342295 -2.515312 0.16999662 15
8.0986605 -6.1118793 -0.53212065 42
2.3336196 -1.5883225 0.34648395 14
10.688857 -6.5375915 -0.51098347 27
5.7289886 -4.7835436 -0.26090264 12
2.110846 -1.4377583 0.6842159 14
2.1448412 -1.6197795 0.48993254 15
5.8135905 -3.9599538 -0.16395855 21
2.7514844 -2.0833004 -1.6094626 38
5.846324 -3.5869715 -0.12000501 25
7.0693717 -5.3544736 -0.25842935 18
4.6435146 -3.1724942 -1.5745432 50
6.51512 -4.9365134 -1.6351457 33
2.9589906 -2.0223172 -0.0001424551 11
7.0511918 -5.9084644 -0.10743392 42
6.7930112 -4.6445141 -1.2805682 15
6.3837352 -4.8404489 -1.0200477 57
2.8695154 -1.7633075 0.019436002 21
6.4279561 -4.8757071 -0.047198057 42
6.6596208 -4.5567098 -0.86951929 55
7.0515914 -5.9151192 -0.85951102 48
5.8046074 -3.9731331 0.16340077 22
3.7631037 -3.156575 0.057001233 31
6.229939 -4.2642922 -0.528216 50
2.9798093 -1.8332317 0.10167301 12
2.9367831 -2.2299907 0.064223528 20
10.616736 -6.5342984 -0.79946822 16
5.657423 -4.75067 -0.4304986 24
6.5139666 -4.9498944 0.33299971 12
6.0547924 -4.6026654 -0.39888036 43
2.0726681 -1.4213191 0.30847323 16
3.0021126 -2.2828953 0.30773914 18
10.57411 -6.5182357 -0.50658149 25
2.0898862 -1.4341861 0.67904043 17
2.715091 -2.0661135 0.62192082 7
3.2737288 -2.2475064 -0.092558742 4
2.7607553 -2.1070468 -1.6196058 40
6.4718661 -4.0050592 -0.13315928 16
4.6947398 -3.2340033 -1.5961117 42
6.4867644 -4.9543505 -1.6327908 32
5.9319921 -4.0877576 -0.00028467178 18
6.9948392 -5.9071078 -0.10691905 46
9.1180916 -6.2857437 -1.7234144 13
7.9739757 -6.0924149 -1.2777106 26
3.0330441 -1.8791459 0.020590425 41
9.1507111 -6.3105688 -1.1977838 16
6.1051302 -5.1594267 -0.74644601 18
5.4641361 -3.7695694 0.15420496 6
3.7601194 -3.1787469 0.057141066 12
6.1281333 -4.2292533 -0.5209564 34
2.944078 -2.2534044 0.064572215 8
3.9254167 -3.0056224 0.2012316 10
6.1108174 -4.6806931 -0.40369785 49
2.1817553 -1.5079137 0.32552969 14
4.3639765 -3.3438334 0.44859755 17
5.9233708 -5.0182195 -0.27138156 22
2.1163924 -1.4638152 0.68939197 12
2.5669754 -1.9682972 0.58964169 13
2.7620056 -2.1232989 -1.6246772 27
5.8096933 -3.6233807 -0.11979377 9
7.8951945 -6.0715604 -0.2902354 26
4.6802592 -3.2481754 -1.5950326 31
6.4601049 -4.969789 -1.6304359 42
3.1806602 -2.2081988 -0.00015306473 6
4.0187826 -3.4179244 -0.061610103 13
9.0376606 -6.2769504 -1.7123421 6
7.902348 -6.0814934 -1.2696257 26
3.0468228 -1.9024332 0.020729303 40
6.7827468 -5.2217054 -0.050074339 15
6.0840497 -5.1781254 -0.74607313 29
3.0440176 -2.1156914 0.086113214 9
3.7611821 -3.2022245 0.057327509 26
6.0117726 -4.1800032 -0.51230091 24
2.9018817 -1.814744 0.099465966 13
7.1540122 -4.4757123 -0.54116923 59
5.6020069 -4.7729039 -0.42886782 17
5.5920072 -3.8909998 0.39647233 6
3.7598267 -2.8997045 0.19326091 12
9.0118256 -6.2729626 -0.51190215 30
6.4897699 -5.0070033 -0.42988378 27
3.3363671 -2.3231945 0.49901652 27
7.8334203 -6.0457978 0.80741215 21
10.337518 -6.4749293 -0.49745142 28
2.591233 -2.0012991 0.59681523 14
8.9951 -6.270638 -0.25558126 33
2.7495842 -2.1275265 -1.6213113 30
5.8084364 -3.64799 -0.12001181 13
6.6493039 -5.1467581 -0.24503475 43
4.6889729 -3.2760944 -1.6015141 29
6.432056 -4.9804478 -1.6273044 45
6.8764997 -5.8857403 -0.10570955 28
7.8382277 -6.0736294 -1.2625564 18
3.1183627 -1.9615083 0.021245956 17
7.8086438 -6.0528426 -0.057799578 13
6.6245699 -4.6353121 -0.87123811 56
6.7455029 -4.7216468 0.19126487 15
4.0730505 -3.4898815 0.062235594 7
7.7933455 -6.0453668 -0.80556017 45
2.9705908 -1.8707237 0.10200763 12
3.8548436 -2.9912755 0.084969997 56
10.277536 -6.4748826 -0.77898425 21
5.5800829 -4.7862487 -0.42841142 26
8.9114361 -6.2446876 0.633286 6
7.8002033 -6.0571842 0.40197337 10
8.9288092 -6.2592249 -0.50836384 51
6.2239213 -4.8348975 -0.41334116 24
2.463984 -1.7278861 0.3693732 37
4.5236912 -3.5153425 0.46745479 8
10.231489 -6.4558449 -0.49337465 26
6.8473282 -5.8815174 -0.31554538 39
2.7119358 -2.1089239 0.62621045 8
8.9251642 -6.2659569 -0.25418431 18
2.7556875 -2.1492159 -1.629764 36
7.0266919 -5.4821439 -0.25971335 17
4.7015529 -3.311821 -1.610141 47
6.4438043 -5.029242 -1.6351497 30
2.949357 -2.0782785 -0.00015687943 25
6.4197426 -4.523788 -1.2221411 26
6.2677531 -4.8935747 -1.0124738 50
6.6757894 -4.7076912 -0.88023657 27
6.8044662 -5.8736763 -0.83943027 48
4.1369009 -2.9183402 0.11759341 3
8.8459501 -6.2403741 -0.75742352 23
7.7177372 -6.0321546 -0.80002379 43
2.9738405 -1.8880284 0.10235655 18
3.8375533 -3.0004568 0.084831238 72
5.6682534 -4.8980508 -0.43655485 12
8.8297749 -6.2358422 0.6291039 6
7.7412333 -6.0548277 0.40002215 6
8.8383665 -6.24195 -0.50445104 45
5.8137627 -4.5489025 -0.3871544 25
3.0480902 -2.1534142 0.45806742 19
3.7861872 -2.9634795 0.39230764 13
10.14144 -6.4486294 -0.49011391 12
6.1102233 -5.2855515 -0.28242713 24
2.0349452 -1.4386879 0.66763806 14
2.6522555 -2.076663 0.61401606 4
7.0692744 -4.9980927 -0.20180386 18
2.7489216 -2.1578624 -1.6297636 42
5.5670261 -3.5508063 -0.11553288 13
4.700551 -3.3332593 -1.6133759 40
6.4279718 -5.0494614 -1.6351489 36
2.9428132 -2.0875337 -0.00015664101 8
5.9563026 -5.170599 -0.092117548 43
6.5400839 -4.6411223 -1.2479728 16
7.6812682 -6.0361285 -1.2438614 26
7.6666365 -6.0267496 -0.057049036 26
6.0999446 -4.3303676 -0.806099 41
6.7438874 -5.858458 -0.8342225 53
4.0002823 -3.4762537 0.061493993 19
8.7699089 -6.2303886 -0.75267655 33
6.5729637 -5.1726012 -0.68313217 19
2.9406164 -1.8806455 0.10142732 9
3.840152 -3.023061 0.085110307 106
5.7341957 -4.9865832 -0.44283676 17
8.7557535 -6.2272234 -0.50091088 42
6.429337 -5.0650182 -0.42926043 33
2.2968867 -1.6341403 0.34598196 7
10.019033 -6.4175525 -0.48522329 24
6.1017079 -5.3136611 -0.2828455 26
8.7389908 -6.2244835 -0.2500813 33
2.7612789 -2.1831839 -1.6415975 31
5.9427571 -4.7001996 -0.22079903 41
4.6575446 -3.3272567 -1.6025909 27
6.4410672 -5.0962057 -1.6429939 46
8.7120504 -6.2259378 -0.00041997433 24
5.6461272 -4.9360027 -0.087586641 15
6.5913644 -4.712194 -1.2608883 31
7.6134801 -6.0259643 -1.2362822 33
3.1181819 -2.0065012 0.02138555 18
7.585969 -6.0062971 -0.05660367 15
6.6897082 -4.7842522 -0.88623452 14
6.6784344 -5.842628 -0.82864296 56
4.0914369 -2.9270983 0.11685109 102
4.0061827 -3.5060005 0.061773181 21
8.6897011 -6.2191615 -0.74765027 41
7.5702724 -6.0003486 -0.7889514 41
3.8201749 -3.0289934 0.084901929 104
9.9508362 -6.4155946 -0.75927001 27
6.0592151 -5.3064909 -0.46936285 26
3.7497132 -2.6855829 0.26840889 8
3.8139341 -3.0251262 0.19813001 66
8.675498 -6.2158608 -0.49755687 47
7.5442967 -5.9882803 0.78594077 23
9.922699 -6.4048028 -0.48163658 23
5.9749241 -5.2400374 -0.27781415 27
2.0345237 -1.4592615 0.67074394 51
2.440486 -1.9384828 0.56810713 9
8.6554785 -6.2106562 -0.24830937 35
2.7309544 -2.1747427 -1.6280723 33
5.5085344 -3.567843 -0.11483192 19
5.9138036 -4.7109494 -0.22033221 17
4.6083851 -3.3164945 -1.589649 36
6.4416432 -5.1333241 -1.6477008 41
8.6091099 -6.1978836 -0.00041520596 27
5.8630223 -5.1618371 -0.091228247 38
6.5844979 -4.7421041 -1.2627327 9
7.5417061 -6.0142455 -1.2281978 30
5.5571308 -3.6048236 0.038221598 28
7.5243011 -6.0003195 -0.056298494 20
6.622139 -5.8343105 -0.82417893 48
4.7290812 -4.1678905 0.073148608 63
8.6064415 -6.2051172 -0.74234498 35
7.5118914 -5.9968891 -0.78504312 39
4.2821193 -2.7809184 0.14837623 5
3.7314496 -2.9799159 0.083160639 47
9.8547401 -6.4024472 -0.75363737 23
5.5845795 -4.9270973 -0.43399268 25
3.2250161 -2.3277147 0.2314564 6
8.58463 -6.1984944 -0.49364394 45
7.516129 -6.0088568 -0.50467366 28
2.0373149 -1.471532 0.30845797 55
3.3973663 -2.7160189 0.35489762 9
9.8165236 -6.3849206 -0.47756088 24
2.035681 -1.4708798 0.67281449 49
7.0619197 -5.1046429 -0.20310605 21
2.7059996 -2.1711252 -1.6179281 47
5.877789 -4.717577 -0.21963227 22
4.6273799 -3.3559773 -1.6004329 43
6.4013767 -5.1397099 -1.6422076 30
8.5215816 -6.1824183 -0.00041115284 33
5.9069023 -5.2390261 -0.092208147 17
8.5087118 -6.175405 -1.6360706 21
7.4680743 -5.9982929 -1.2196082 32
2.9129019 -1.9040172 0.020069957 8
7.4492512 -5.9852672 -0.055899858 24
6.3399177 -4.6030178 -0.84423637 23
6.5709248 -5.8321042 -0.82045877 15
8.5095768 -6.1805029 0.24431777 26
4.9500575 -4.3949857 0.076817274 63
6.7952571 -4.9372253 -0.58768189 45
7.4463701 -5.9894004 -0.78048366 52
5.5966063 -3.6638243 0.19439554 11
3.4120228 -2.7453611 0.076264024 26
9.7510614 -6.386035 -0.74749255 22
5.4688363 -4.859035 -0.4263131 36
3.2201004 -2.3413057 0.23168921 11
8.501545 -6.1837664 -0.49010378 56
6.3906059 -5.1457057 -0.43030524 46
2.0385866 -1.4833063 0.30943286 38
4.3281431 -3.4862177 0.45346916 10
9.7328939 -6.3814116 -0.47462612 10
6.5584745 -5.8353705 -0.30687684 51
2.0334001 -1.4806051 0.6738497 49
2.8922443 -2.3312707 0.67714298 4
2.7040439 -2.1851151 -1.621309 45
5.8612866 -4.7380657 -0.21963155 22
4.5658741 -3.3357527 -1.5831771 23
6.395596 -5.1718888 -1.6453452 38
8.4515076 -6.176722 -0.00040781498 30
6.6204557 -5.9112463 -0.10364866 36
8.4307461 -6.1616087 -1.6249987 14
7.3884792 -5.9769096 -1.2100079 33
2.9062381 -1.9141729 0.020070314 5
7.3878908 -5.9785223 -0.055594683 24
8.4520626 -6.1816955 -1.1283541 41
8.4363136 -6.1723886 0.2428323 19
4.7319331 -4.2309499 0.073660851 36
6.7425632 -4.9349914 -0.58461004 35
7.3768964 -5.9739156 -0.77527308 55
5.3908248 -3.5547018 0.18765593 15
4.7826862 -3.8744311 0.10719717 48
9.6431952 -6.3611851 -0.74083602 27
5.5173101 -4.9366746 -0.43143141 34
3.1990218 -2.3430932 0.23075998 8
3.7597802 -3.04794 0.19699287 18
8.4251165 -6.1732569 -0.48693603 52
5.6186953 -4.5565801 -0.37939954 27
2.8890765 -2.3429072 0.30349851 11
6.4973993 -5.8197465 -0.30491966 56
2.2091994 -1.6198524 0.73388791 23
2.9242198 -2.3730843 0.68646872 5
7.0228863 -5.151454 -0.20301116 28
2.6939709 -2.1917822 -1.6196182 42
5.9876142 -3.9677601 -0.12567425 50
6.1928601 -5.0401487 -0.23267913 33
4.6819973 -3.4444625 -1.6273929 32
6.3784094 -5.1930695 -1.6453444 42
8.3697672 -6.1596661 -0.00040400028 24
6.4718914 -5.8193235 -0.10163963 29
6.353054 -4.677227 -1.227672 19
7.3275795 -5.9700813 -1.2034392 35
9.565032 -6.3480029 0.066261053 4
4.9306388 -4.0171504 -0.037210226 45
8.3706751 -6.1648808 -1.1202109 37
6.4540992 -5.8074322 -0.8107872 47
8.3546305 -6.1552634 0.24106812 12
4.6138282 -4.1529627 0.072036505 21
6.72616 -4.957324 -0.58460933 35
7.3065681 -5.9593129 -0.77006245 50
3.3901577 -2.7659936 0.076195359 24
9.5444717 -6.343986 -0.73494732 30
5.4525795 -4.9131341 -0.42770749 27
7.4002051 -5.4600511 0.53521693 9
2.3188367 -1.8932469 0.1218313 14
8.3456507 -6.1599164 -0.48358214 46
7.3290448 -5.9861593 -0.49629116 14
6.4473615 -5.8156171 -0.30352128 58
2.1631296 -1.5977114 0.72043133 21
8.3234901 -6.1502881 -0.2412219 18
2.6803122 -2.1970451 -1.6162366 43
6.3165674 -5.1794314 -0.23803729 47
4.6538701 -3.4501295 -1.6219997 30
6.3168783 -5.1815872 -1.6343589 34
6.5736194 -4.8750405 -0.00032198429 8
6.3041258 -4.6769304 -1.2215207 26
7.2637506 -5.9603834 -1.1963651 36
4.9375243 -4.0529604 -0.037373304 27
8.2937326 -6.1552267 -1.1129247 36
6.3973622 -5.7989516 -0.80632329 48
8.2774305 -6.1453176 0.23948979 8
6.3941355 -5.7980204 0.10017371 29
8.2808123 -6.1501069 -0.72168183 30
7.2538748 -5.960743 -0.76680541 46
4.6543188 -3.1170604 0.16278827 7
9.4581451 -6.3367105 -0.73008251 30
5.39991 -4.8999367 -0.42491442 16
3.1922019 -2.3725152 0.23145819 7
8.2663794 -6.1460981 -0.48022819 45
7.2618318 -5.9736414 -0.49314785 24
2.0420558 -1.5187885 0.31235766 30
6.0907655 -4.085258 -0.29909223 8
6.3934588 -5.8096361 -0.30198312 64
2.3866169 -1.7763424 0.79703164 22
8.2495756 -6.1425424 -0.23972958 35
2.6754224 -2.2086957 -1.6179266 39
6.279952 -5.1861739 -0.23733741 29
4.6850057 -3.4986203 -1.6370976 24
6.3048 -5.208602 -1.6359272 32
8.2069063 -6.130826 -0.00039637089 16
6.2750988 -4.6894441 -1.2190596 27
7.1970215 -5.9477868 -1.188786 37
3.1613631 -2.1300111 0.021988273 13
4.9665055 -4.1058502 -0.037699938 27
8.2084904 -6.1365142 -1.104353 33
6.3417845 -5.7890267 -0.80185932 59
3.2223959 -2.9425163 0.05063355 8
8.1953907 -6.1311679 -0.7160973 41
7.1900258 -5.9504414 -0.76224601 52
6.5160007 -4.3968916 0.22844768 21
4.1866498 -3.466049 0.094658732 48
2.2870944 -1.8940935 0.12085593 26
8.1841106 -6.129406 -0.47668797 43
5.8382831 -4.8368797 -0.39762223 46
2.246448 -1.6830208 0.34452188 13
2.9437783 -2.4396758 0.31195819 13
6.33775 -5.7995334 -0.30030549 67
2.497874 -1.8727365 0.83636713 28
8.1672993 -6.1257114 -0.23795784 35
2.6676962 -2.2180214 -1.6179262 45
5.7497354 -3.89885 -0.12154448 28
6.2310724 -5.1824965 -0.23617148 67
4.6727653 -3.5149531 -1.6370969 31
6.28055 -5.2255611 -1.6343572 41
8.1407099 -6.1257639 -0.00039327145 36
4.6311989 -4.2527623 -0.073431134 72
6.28162 -4.7268634 -1.2233641 7
7.1335182 -5.937335 -1.1817122 36
3.2697375 -2.2196646 0.022796988 9
7.1254096 -5.9326453 -0.054234028 34
8.1393671 -6.1292443 -1.0979239 38
6.2892852 -5.7814798 -0.79776734 72
8.1272097 -6.1222987 -0.71190882 24
7.1120591 -5.9257622 -0.75605875 50
5.4464884 -3.7015398 0.19137728 4
4.1659164 -3.4722314 0.094450235 50
8.1095066 -6.115613 -0.4735204 30
5.6504297 -4.7129316 -0.38589042 73
2.221838 -1.6761144 0.34159815 12
2.9632225 -2.4724107 0.31488633 12
6.0694246 -4.1311188 -0.29941684 15
6.280261 -5.7853079 -0.29848802 67
2.479315 -1.8716969 0.83222675 33
8.0937576 -6.1103778 -0.23637247 35
2.6551549 -2.2217386 -1.6145449 44
5.7803988 -3.9462085 -0.12245333 27
6.3588591 -5.3226652 -0.24164623 48
4.6616988 -3.5296154 -1.6370964 52
6.2911668 -5.2679291 -1.6414177 40
6.4505959 -4.8857861 -0.00031626225 27
3.6778128 -3.3986304 -0.058487415 19
7.0722451 -5.9240451 -1.1746382 42
5.9145179 -4.0423074 0.041343927 21
4.764411 -3.9922643 -0.036365628 12
8.085207 -6.1283593 -1.0932091 18
6.2360086 -5.7687554 -0.79330349 65
3.0176473 -2.2880776 0.087961078 15
3.1827745 -2.9442508 0.05030942 24
6.3273787 -4.7976947 -0.55557221 59
7.0689683 -5.9275842 -0.75345308 17
4.1427317 -3.4750202 0.09417212 58
6.1862478 -4.2343807 -0.48075408 41
5.3324533 -4.938066 -0.4235158 20
3.4829104 -2.6437287 0.25446808 20
2.2656305 -1.9011152 0.12036836 58
6.5371385 -4.9621305 -0.38261992 43
4.3919687 -3.3349614 0.6768837 10
5.8750882 -4.0259094 -0.29045236 44
6.2298074 -5.7751136 -0.29695004 62
2.6241634 -1.9940219 0.88294876 22
2.3985114 -2.0147424 0.57097936 24
8.0363159 -6.1067424 -0.23525321 16
2.6414549 -2.226778 -1.6111561 32
5.8285012 -4.0104337 -0.12377155 28
6.3454285 -5.3510823 -0.24186772 25
4.6487379 -3.5466707 -1.6370866 29
6.2748246 -5.2934709 -1.6421909 69
6.4294715 -4.9069586 -0.00030434132 39
3.6588855 -3.40727 -0.058385253 51
7.9637294 -6.0801663 -1.5591691 19
7.0141053 -5.9192061 -1.1685635 43
5.5175581 -3.8007326 0.038675427 9
7.0054021 -5.9139113 -0.053612947 30
6.1798673 -5.7589803 -0.78882927 63
2.9615791 -2.2627008 0.08657527 28
3.0134642 -2.8091686 0.047810078 34
7.9669762 -6.0892196 -0.70156503 23
7.0004897 -5.9160724 -0.74855673 33
3.1167359 -2.150135 0.11003816 14
3.8056142 -3.2172008 0.086795926 27
5.9728274 -4.1220527 -0.46538401 50
4.4033065 -4.1077008 -0.35090756 28
3.4922311 -2.6710274 0.25587082 28
2.2583163 -1.9097979 0.12037551 60
6.1499386 -4.7055326 -0.36100119 45
5.4527178 -4.6129379 -0.37456697 60
3.0833788 -2.3600104 0.47659791 21
3.2684736 -2.7660306 0.34937871 43
5.8727446 -4.0575161 -0.29109311 10
6.1754608 -5.7689643 -0.29540169 58
2.6072872 -1.9970312 0.87985098 22
2.4354496 -2.0624986 0.58174658 13
6.335763 -4.8547249 -0.18603319 34
2.628139 -2.231293 -1.6077745 39
9.0289955 -6.2591782 -0.19218838 11
4.6149483 -3.5464468 -1.629537 39
6.3400021 -5.3864503 -1.6641588 41
6.8150516 -5.2389817 -0.00032162666 16
3.6615584 -3.4337018 -0.058618307 69
7.8923264 -6.0693765 -1.5493274 20
6.9439945 -5.9037514 -1.1604789 42
4.0104437 -3.4096153 -0.030789852 14
7.9087667 -6.0841975 -1.0751965 27
6.1248789 -5.7478127 -0.78436553 63
2.9409862 -2.2632697 0.086203933 53
2.9948919 -2.8114572 0.047671199 21
6.5355058 -5.0313659 -0.57705563 31
5.4526916 -4.6407514 -0.5847826 50
4.1631098 -2.8935053 0.1473434 14
3.7699995 -3.2097235 0.08623898 49
6.3615251 -4.4231696 -0.49686837 105
5.2990284 -4.9797497 -0.42373729 24
3.472929 -2.6764963 0.25517416 26
2.2482591 -1.9154696 0.12021327 65
6.0598693 -4.6719284 -0.35671628 57
5.6577029 -4.8220434 -0.38985819 30
2.0341022 -1.5687399 0.31528962 8
8.9780483 -6.2494211 -0.44608241 34
6.1174335 -5.7548771 -0.29358429 66
2.4372182 -2.0786471 0.58389902 13
7.8763013 -6.0789099 -0.23188365 10
2.6364727 -2.2550488 -1.6179177 29
8.9437037 -6.2487068 -0.19085807 10
4.5958285 -3.5586212 -1.6273795 34
6.3589563 -5.4428082 -1.6743577 37
7.8551702 -6.0844994 -0.00036799908 40
3.6495502 -3.4464614 -0.058617711 57
7.8179731 -6.0557432 -1.5388705 20
6.8841605 -5.8944039 -1.1539103 41
3.9857674 -3.4138827 -0.030695915 19
7.8361211 -6.0741611 -1.068339 44
6.080616 -5.7483344 -0.78138924 63
2.9358315 -2.2764835 0.086297393 47
6.0776129 -5.7454557 0.097078919 37
7.8170595 -6.0615554 -0.69207138 17
6.8712363 -5.8895602 -0.73911268 57
4.1595354 -2.9126065 0.14757645 26
3.9986258 -3.4285235 0.091743827 12
3.5613513 -2.7645102 0.26237941 27
2.2479625 -1.9281187 0.12053883 49
5.8707471 -4.5572414 -0.34647101 44
5.8478236 -5.0176578 -0.40410197 19
2.9072394 -2.4953611 0.31261814 22
8.8874636 -6.2325315 -0.44265884 32
6.0711894 -5.7514524 -0.29232574 49
2.5676479 -2.2046406 0.61689711 18
5.9362926 -4.6130996 -0.17522115 18
2.629375 -2.2633207 -1.6179173 31
8.8553324 -6.2284551 -0.1893881 16
6.2596912 -5.3900476 -0.24070013 44
4.5755119 -3.5659387 -1.6241436 32
6.3537121 -5.4729981 -1.6774952 30
3.4467771 -3.2766609 -0.055535436 63
7.7417502 -6.0378828 -1.5277989 21
6.8315158 -5.8887024 -1.148352 40
4.8354583 -4.1680765 -0.037335873 20
7.7636952 -6.0571604 -1.061053 38
6.0307865 -5.7372127 -0.7772975 60
2.9318173 -2.2881558 0.086390615 24
4.1723151 -3.9705548 0.066850185 16
7.7591739 -6.0579772 -0.68872046 46
6.0216265 -5.196064 -0.64957386 31
3.0650222 -2.161376 0.10899305 28
6.0254092 -5.7401037 -0.48493165 36
3.457777 -2.702533 0.25540745 51
2.2381933 -1.933341 0.12037647 56
6.3899169 -4.9960995 -0.37813526 57
3.2367492 -2.53159 0.50437725 18
4.2865596 -3.7040467 0.46226752 17
8.8047171 -6.2181625 -0.43956131 36
6.0202618 -5.7412062 -0.29078788 63
2.5044241 -1.9594877 0.85190308 15
2.551007 -2.205868 0.6147455 18
2.6128454 -2.2658172 -1.6128453 35
7.0803218 -5.0188727 -0.1518209 22
6.1855288 -5.3657951 -0.23860228 15
4.550293 -3.573169 -1.6198293 44
6.2536259 -5.4268394 -1.6563102 31
3.4208722 -3.2748427 -0.055301428 72
7.667788 -6.0233631 -1.5173419 18
6.76897 -5.8760967 -1.1412783 35
2.9391406 -2.0856926 0.020797253 33
4.6751847 -4.0598826 -0.036212802 23
6.3907628 -5.0237942 -0.87592804 23
5.9752135 -5.7262092 -0.77283359 54
3.8412833 -3.0206866 0.11352134 20
5.9796076 -5.7323866 0.096152186 28
7.6804671 -6.0419669 -0.68369436 42
5.3925791 -4.686193 -0.58347797 40
4.0907216 -2.906117 0.14583421 15
3.9872694 -3.4661567 0.09202373 27
8.7266951 -6.2019591 -0.68654418 24
5.9649935 -5.7223978 -0.48167312 20
3.4294963 -2.6997654 0.2540133 47
2.2465079 -1.9542575 0.12119031 20
5.8199549 -4.5832825 -0.34535187 14
5.5926819 -4.8669338 -0.38880843 55
2.1145203 -1.6657649 0.33039784 10
2.8631198 -2.4915373 0.30969107 14
8.7113132 -6.1978855 -0.43597478 29
5.9655852 -5.7289577 -0.28911024 37
7.5836487 -5.9764018 2.5867996 17
6.883739 -5.426867 -0.20429564 15
2.5971248 -2.2673173 -1.6077729 30
7.0343432 -5.0214109 -0.15119052 15
6.9326344 -6.0543013 -0.2681914 39
4.529355 -3.5810719 -1.6165934 51
6.3183031 -5.5198021 -1.6782782 38
4.9664421 -3.9279947 -0.00023901463 50
3.2568042 -3.1396363 -0.052826166 24
7.6064219 -6.0182104 -1.5093453 22
6.7095809 -5.8657384 -1.1347096 27
2.93835 -2.1005921 0.020843744 29
7.627667 -6.0371675 -1.0481951 50
5.9275298 -5.7183418 -0.76911372 50
3.9723289 -3.1451137 0.11770284 9
4.1761527 -4.0301385 0.067362189 35
6.6093993 -5.2349615 -0.58989394 21
5.3461871 -4.6787324 -0.58022124 103
3.1408975 -2.2478759 0.11224794 48
3.9751458 -3.4800534 0.092024207 39
8.6563082 -6.1975265 -0.68270338 15
5.9076462 -5.7071147 -0.47864729 39
3.4106643 -2.7042768 0.25331652 47
2.2607162 -1.9805231 0.12232947 24
5.4975529 -4.8179746 -0.38336116 56
3.3993821 -2.6972537 0.5326438 11
2.8514073 -2.4988885 0.30936611 28
8.6311541 -6.186347 -0.43304026 32
5.9254355 -5.7302947 -0.28813118 55
2.1627653 -1.8966954 0.5243609 14
5.8939238 -4.6799831 -0.17540514 20
2.5996857 -2.286397 -1.6145351 30
5.9467916 -5.2318959 -0.23079526 23
4.5071597 -3.5904486 -1.6133575 47
6.2950845 -5.5403314 -1.6774925 27
5.1209354 -4.0807853 -0.00024580956 30
7.5379539 -6.0090928 -1.5001186 18
6.6563044 -5.8602805 -1.1291513 27
4.7247725 -4.1611571 -0.036819339 50
7.5495219 -6.0204511 -1.0404807 41
5.8779683 -5.7122736 -0.76539361 54
4.0201702 -3.2070336 0.11946893 13
4.2617297 -4.1429982 0.068988204 26
7.5632467 -6.0357046 -0.67699242 17
6.6298413 -5.8451858 -0.7218523 68
4.5622611 -4.0236835 0.10596013 24
8.5687923 -6.182498 -0.67758286 33
5.8676529 -5.7082114 -0.47701758 32
3.4012036 -2.7161653 0.253317 50
2.2298131 -1.9672489 0.12102807 20
5.7753286 -4.6138258 -0.34460533 57
5.4627314 -4.8212757 -0.38210356 49
2.9438424 -2.5990355 0.32042766 37
8.5565834 -6.1804962 -0.4304316 39
4.3925147 -4.27911 -0.21435553 48
6.7885222 -5.4310188 -0.20261639 25
2.6079717 -2.3098793 -1.6246781 36
5.5020905 -3.9873567 -0.1188699 78
4.4795775 -3.5941069 -1.6079645 55
6.2492905 -5.5388579 -1.6704303 40
4.8571005 -3.898335 -0.00023400784 36
3.2176456 -3.1455195 -0.052544951 53
7.468668 -5.994473 -1.4902768 18
6.5942421 -5.8466253 -1.1220776 30
5.3291597 -3.8662853 0.038010001 13
4.6383991 -4.1139255 -0.036257625 23
7.4850492 -6.0119014 -1.0344802 42
5.8295288 -5.7048998 -0.76167363 39
7.4941397 -6.0213065 0.22334695 8
4.2186604 -4.129869 0.06852448 10
7.4799299 -6.0120711 -0.67140818 27
6.5865693 -5.8459687 -0.71924675 50
6.743012 -4.89925 -0.53449219 39
4.1561537 -4.071538 -0.33903587 16
3.5410588 -2.8481543 0.26447344 17
6.1732235 -4.9671006 -0.36937743 39
5.4398975 -4.8350077 -0.38168377 47
3.1949015 -2.5715554 0.50340426 15
2.9888449 -2.656456 0.32628393 31
8.4681692 -6.1594672 -0.42700815 36
2.585161 -2.0814965 0.88916981 22
2.5758271 -2.2909596 0.6283766 9
5.9607649 -4.8012877 -0.17838579 30
2.5975919 -2.316103 -1.6229873 40
5.4080725 -3.9466405 -0.11712039 65
4.7443595 -4.2316418 -0.18524414 25
4.4556489 -3.5992603 -1.6036505 48
6.2308888 -5.5595512 -1.6704295 39
4.8317018 -3.9043646 -0.00023281574 45
7.3923693 -5.9757819 -1.4792051 21
6.5333734 -5.8314686 -1.1150037 33
5.3130798 -3.8815765 0.037987471 12
5.4512067 -4.8672276 -0.042733192 8
7.4186869 -5.9991798 -1.0280514 40
7.4165268 -6.0017004 -0.66749883 46
6.5215364 -5.8290706 -0.71436191 101
3.0365148 -2.2216206 0.10934365 11
6.0848551 -4.4535856 -0.48355252 35
3.3826368 -2.7392528 0.25331795 36
2.2074342 -1.9743874 0.12054086 59
6.1846604 -5.0101829 -0.3710531 23
5.4238343 -4.8530197 -0.38168299 60
2.8964119 -2.347168 0.45759475 21
2.9854946 -2.6721907 0.32693505 15
8.3885841 -6.1464696 -0.42407364 42
2.5748787 -2.088074 0.88813484 25
3.579092 -3.2057343 0.87586081 22
6.4253197 -5.2125678 -0.19282949 18
2.5894914 -2.325156 -1.6229869 32
5.4522648 -4.0081329 -0.11837888 9
5.8450103 -5.2501059 -0.2289288 37
4.4340954 -3.6074991 -1.6004145 42
6.1764331 -5.5498075 -1.6610132 44
4.8118386 -3.9161572 -0.00023198128 29
7.3346853 -5.9716039 -1.4718235 19
6.4746151 -5.8197556 -1.1084352 30
8.3309784 -6.1311002 0.059728861 7
7.3545303 -5.9898787 -1.0220511 25
5.6386781 -4.5956621 -0.50893289 59
6.4685545 -5.8224616 -0.71077943 103
6.0660601 -4.4724307 -0.48329586 35
1.8956075 -1.8824437 -0.15568149 0
3.171912 -2.5869913 0.23821127 16
2.2124074 -1.99278 0.12119198 31
5.7956233 -4.7286229 -0.3487007 19
6.4721999 -5.8318686 -0.45688391 71
2.0977268 -1.7120913 0.3323487 12
4.2968864 -3.8730817 0.472031 28
8.3059835 -6.1306181 -0.42097616 46
1.8963495 -1.8858087 -0.093492508 1
2.4179518 -1.9748433 0.8363781 18
6.4287639 -5.2526751 -0.19348109 18
2.5706038 -2.3244548 -1.6162241 30
5.4735961 -4.0533209 -0.11914766 7
6.4285822 -5.814959 -0.25257611 48
4.3887024 -3.5960999 -1.588551 42
6.1395736 -5.5555444 -1.6563048 48
5.2652645 -4.3158255 -0.00025200844 24
1.8937534 -1.8904693 -0.031252861 3
7.2679501 -5.959579 -1.4625968 23
6.4189596 -5.8103676 -1.1023718 37
8.2806072 -6.1387038 0.059521914 12
3.7062924 -3.3560231 -0.0292418 75
6.165132 -5.0570664 -0.85921061 57
1.8793819 -1.8774428 -0.2480756 1
5.2894087 -4.3402438 0.15895987 17
5.6349397 -4.6254435 -0.51004881 50
6.409791 -5.8101974 -0.70654589 51
3.852396 -2.8600619 0.13944507 31
3.190901 -2.8933861 0.075025678 72
6.0472069 -4.4911976 -0.48303914 44
3.1042347 -2.5498879 0.23379564 17
2.2261596 -2.0192869 0.12233114 17
5.5629859 -4.5712504 -0.33566165 45
5.4282784 -4.9256625 -0.38440454 30
4.033144 -3.3152728 0.64083564 4
8.2268 -6.1166501 -0.41804165 43
2.4378984 -2.0053618 0.84569442 18
2.5678344 -2.3382959 -1.6196049 42
4.4603658 -4.0629978 -0.17580611 51
4.3582969 -3.5966876 -1.5820801 48
7.2151065 -5.9563136 -0.00033891201 38
1.887143 -1.897068 -0.031252623 3
7.2013912 -5.9471607 -1.4533701 24
6.3722472 -5.8086796 -1.0978239 36
8.1790047 -6.1077366 0.058945417 21
3.7063777 -3.3797212 -0.029334545 106
7.2174864 -5.9625549 -1.0087647 36
1.8672014 -1.8783419 -0.24733144 2
5.5239105 -4.5650225 0.16648662 14
1.8748752 -1.8867073 0.030864716 2
7.211803 -5.9620829 -0.65465438 41
6.3511944 -5.7975945 -0.70231223 45
3.832783 -2.866308 0.13909686 109
3.189642 -2.9125972 0.075235128 54
6.6547737 -4.9785714 -0.53295302 53
1.8599098 -1.872963 -0.1538195 2
3.1137757 -2.5759807 0.23519063 11
2.2131956 -2.0216544 0.12200606 6
7.2123108 -5.968853 -0.43642831 36
5.3933601 -4.9284129 -0.38314694 73
2.7065325 -2.2406518 0.43127954 5
6.0844836 -4.5568871 -0.30999023 26
1.8718785 -1.8876472 -0.092933059 2
2.5260937 -2.0927374 0.87881958 6
6.2964883 -5.2183242 -0.19059038 20
2.5516484 -2.3398919 -1.6145283 39
6.4555421 -4.8506155 -0.14124465 10
6.3289123 -5.805634 -0.25023806 106
4.3516498 -3.6167984 -1.5842307 51
6.0544109 -5.5558333 -1.6437432 66
7.1542959 -5.9482112 -0.00032913685 47
1.860839 -1.883724 -0.030921459 3
7.1441336 -5.9419265 -1.4459817 25
6.3168659 -5.7986813 -1.0917542 32
8.125679 -6.1121984 0.058722854 6
3.6975107 -3.3953397 -0.029352427 71
7.1507831 -5.9495511 -1.0023291 48
1.8550434 -1.8791783 -0.24658322 2
1.8626645 -1.8875449 0.030776381 2
7.1449614 -5.9489155 -0.65045911 50
6.301578 -5.7927437 -0.69904912 53
3.8802457 -2.9229689 0.14119458 22
1.8589735 -1.885129 -0.15428042 3
7.1359968 -5.9456248 0.5405972 22
7.1546097 -5.9632864 -0.43418539 45
5.3437991 -4.9174509 -0.38083601 74
2.2674022 -2.0871849 0.2514652 38
8.081809 -6.0969028 -0.412817 25
1.8680881 -1.8970163 -0.093068361 3
2.4486284 -2.2555761 0.60686255 21
6.2966642 -5.2556405 -0.19114226 33
2.5434647 -2.3487847 -1.6145279 45
8.0489988 -6.0920043 -0.17656875 18
6.273365 -5.7951341 -0.24883932 68
4.3360443 -3.6294944 -1.5831517 44
6.003294 -5.5476513 -1.6351119 73
7.0966873 -5.9423313 -0.00032663345 57
1.8514514 -1.8873522 -0.030874372 3
7.0748715 -5.926219 -1.4361401 27
6.2587075 -5.7856793 -1.0851856 39
7.0842476 -5.9361615 -0.99590033 51
1.8456843 -1.8827982 -0.24621099 2
3.7971601 -3.1828678 0.11511075 16
1.8588639 -1.8968918 0.030823112 3
7.0844045 -5.9404888 -0.64682907 38
6.2432866 -5.7794971 -0.69481564 63
5.1294365 -4.7500138 0.12178767 8
6.2987304 -4.7811389 -0.50709164 68
1.8523819 -1.8916061 -0.15428007 2
7.0631962 -5.9268608 0.53664684 18
4.4947701 -4.1637387 0.2494055 12
7.0878453 -5.9496894 -0.43139058 30
5.3529716 -4.9605103 -0.38272053 59
2.2133224 -2.0517218 0.24626029 43
8.006381 -6.0839677 -0.4100455 15
1.8586605 -1.9006677 -0.09292829 3
2.3605671 -1.9835508 0.82603228 20
2.6657677 -2.4728577 0.66281605 18
6.2905235 -5.2878795 -0.19151407 33
2.5193226 -2.3428366 -1.6043838 33
4.4702764 -4.1584988 -0.17789549 58
4.3145127 -3.6371598 -1.5799158 46
5.9810209 -5.5659022 -1.6343263 51
7.0239182 -5.9232306 -0.0003234148 46
1.8532245 -1.9023983 -0.031013966 7
7.0088253 -5.9126511 -1.4269136 24
6.2036223 -5.7750478 -1.0791224 42
4.6162825 -4.2988276 -0.036878467 16
7.0239725 -5.9275098 -0.99032867 48
1.836323 -1.886375 -0.24583882 3
3.3337877 -2.8143244 0.10135937 12
7.0209446 -5.9291391 -0.6429199 40
6.1851645 -5.7659135 -0.69058204 67
3.4499502 -2.6367776 0.12620294 6
7.9373169 -6.0687284 -0.64070725 27
1.8513354 -1.9037859 -0.1547451 3
3.8247313 -3.2322013 0.29144275 15
5.2546649 -4.9018712 0.29252183 19
5.3210201 -4.965539 -0.38167238 61
2.4434376 -2.0663366 0.39278507 16
2.1974044 -2.0512726 0.24528456 46
2.2916925 -1.939363 0.80429447 24
6.9465327 -5.8808346 -0.2121076 30
2.5005457 -2.3417039 -1.5976211 38
6.5154152 -5.0032053 -0.14369047 26
6.1656418 -5.7759175 -0.24615806 102
4.2929821 -3.6447194 -1.5766799 39
5.9386601 -5.5652876 -1.6280487 49
6.972712 -5.9218183 -0.00032103062 41
1.8437918 -1.9059811 -0.030967116 7
6.9489875 -5.9038124 -1.4189171 24
6.1544776 -5.7695298 -1.0740695 41
3.913306 -3.0082757 0.028500795 11
6.1768007 -5.792438 -0.049500823 30
6.9638429 -5.9185104 -0.98475677 51
1.835263 -1.8985002 -0.24658227 4
3.3239431 -2.8259437 0.10135984 24
1.8372374 -1.9011931 0.030684352 5
5.5807214 -4.7463431 -0.51255137 51
6.1359324 -5.7601824 -0.68732524 50
3.8652647 -2.9756367 0.14177716 6
4.9970284 -4.6926231 0.11942005 46
6.5213709 -5.0222821 -0.52782363 53
1.8308096 -1.895874 -0.15358144 4
6.9456244 -5.9113221 0.53083837 11
5.300745 -4.9813457 -0.3814621 36
2.5933814 -2.2087142 0.41812718 30
2.2192788 -2.0862377 0.24853814 32
5.8999977 -4.5486598 -0.30378795 24
1.8425711 -1.9107189 -0.092787981 6
2.2584436 -1.9247942 0.7949785 21
6.326488 -5.3939338 -0.19374889 31
2.4897189 -2.3479316 -1.5959302 46
6.5611811 -5.0748539 -0.14508867 17
6.1134496 -5.7672234 -0.24487579 103
4.2626677 -3.6446636 -1.5702089 47
5.902082 -5.5698318 -1.6233401 70
3.9882259 -3.4111538 -0.00018978119 10
1.8343567 -1.9095209 -0.030920029 4
6.8922977 -5.8971982 -1.4115354 26
6.1083326 -5.7664628 -1.0695218 45
7.8149986 -6.0511832 0.05708611 21
3.2426064 -3.0621486 -0.026077628 9
6.8978209 -5.9039927 -0.97832811 51
1.828625 -1.9048946 -0.24658197 3
3.3049464 -2.8297262 0.10108161 22
1.8305898 -1.9075949 0.03068471 2
5.5459361 -4.7502198 -0.51087564 65
4.9893346 -4.7182817 0.11962986 47
7.8001337 -6.0505939 -0.63302618 13
1.8241804 -1.9022532 -0.15358114 2
6.8915954 -5.9069452 0.52828252 6
5.1796679 -4.8999815 0.29024565 33
5.2920275 -5.0080562 -0.38208973 36
2.6067505 -2.235847 0.42153907 14
2.3046288 -2.1816771 0.25894916 48
7.7843995 -6.04491 -0.40189409 14
1.8414197 -1.9229136 -0.093067169 2
2.2605062 -1.9402153 0.79808438 9
2.5625932 -2.4275661 0.64344871 18
6.2924509 -5.4029589 -0.19328207 15
2.4709935 -2.3466222 -1.5891675 49
6.4014535 -4.9871197 -0.14194012 34
4.4815621 -4.2574043 -0.18010676 39
4.2470007 -3.6570067 -1.5691297 41
5.8854465 -5.5931029 -1.6241239 63
1.8307756 -1.9184866 -0.03096652 2
6.8367691 -5.8890667 -1.4041539 28
6.0507808 -5.7522082 -1.0629534 45
7.7275915 -6.0267677 0.056602001 18
6.8380103 -5.8942771 -0.97275633 50
1.8247124 -1.9141486 -0.24695361 1
3.301105 -2.8464684 0.10126781 17
1.832198 -1.9226596 0.030824304 1
6.8406348 -5.9006896 -0.63202983 22
6.0280528 -5.7385674 0.14499509 59
1.8230368 -1.9143927 -0.15404618 2
2.2429883 -1.9361079 0.17244375 4
5.1625328 -4.9180312 0.29024637 40
5.9032774 -5.0975099 -0.36358893 51
6.0552731 -5.7705522 -0.43864602 73
2.8452976 -2.4577463 0.46150172 20
2.3031535 -2.1948075 0.25960016 30
5.8405623 -4.5665579 -0.30231977 18
1.8350329 -1.9290092 -0.093066812 2
2.3066828 -1.9931724 0.81671739 7
2.6655934 -2.541965 0.67142582 10
6.2775254 -5.4264112 -0.1933744 23
2.4710596 -2.3623185 -1.5942388 48
6.4069085 -5.025599 -0.14242899 12
4.464529 -4.2694778 -0.17998964 106
4.2173867 -3.6559317 -1.5626585 47
5.8441935 -5.5908976 -1.6178463 66
4.9289317 -4.2741914 -0.0002310276 27
1.8268187 -1.9277689 -0.031012893 1
6.7713871 -5.8740458 -1.3949276 27
5.9905381 -5.7348781 -1.0558795 42
3.4506567 -2.7105761 0.025336385 24
3.2650287 -3.1256394 -0.026427388 110
6.7853861 -5.888248 -0.96804166 52
1.8156164 -1.9172976 -0.24658138 1
3.2916474 -2.8573992 0.10126817 12
1.8313112 -1.9345345 0.030917406 1
5.9813075 -5.7320309 -0.67657816 49
2.9261143 -2.3010042 0.10819006 37
4.9830856 -4.7770414 0.12025857 36
7.6426854 -6.0122275 -0.62355345 36
1.8273176 -1.9323502 -0.15497661 2
3.1841273 -3.0545783 0.17960954 53
5.9728837 -5.1941228 -0.36898959 45
6.0091543 -5.7667613 -0.43675977 42
2.4335487 -2.3353353 0.27521634 30
6.5656056 -5.1704826 -0.34077942 28
1.8255434 -1.9324968 -0.092926741 2
2.5066516 -2.1812949 0.89021313 13
3.3606031 -3.2272279 0.84932935 15
6.1650443 -5.3668947 -0.19048476 21
2.4571619 -2.3663304 -1.5908573 41
7.612155 -6.0162039 -0.16970789 26
5.9663372 -5.747705 -0.24137831 53
4.2068601 -3.6738992 -1.5637363 43
5.8490806 -5.636775 -1.6249068 50
3.74142 -3.2685144 -0.00017869473 12
1.8334433 -1.9490178 -0.031246066 2
6.7140994 -5.8676147 -1.3875461 27
5.9447718 -5.7309694 -1.0513318 39
7.5912237 -6.0061131 0.055910587 20
3.2333963 -3.1181488 -0.026263237 45
6.7248335 -5.8790493 -0.96246988 52
1.8113046 -1.926841 -0.24695289 1
3.2811527 -2.8694446 0.10126889 9
1.8488597 -1.9674659 0.031335711 0
6.7241936 -5.882617 -0.62504894 44
5.9287081 -5.7234578 -0.67299587 39
2.923929 -2.3166792 0.10842288 37
5.002943 -4.8313899 0.12116516 72
6.6132851 -5.2417822 -0.54113072 24
1.8260283 -1.9445388 -0.15544164 1
2.2444398 -1.9648707 0.1736064 27
3.1906922 -3.0823355 0.1805861 68
5.8735576 -5.1438637 -0.36395979 26
5.9487748 -5.7488394 -0.43382633 36
2.8519599 -2.4984796 0.46540129 54
2.2300622 -2.155813 0.2530942 28
5.8359132 -4.6305919 -0.30378503 24
1.8239173 -1.9450064 -0.09320581 1
6.1333079 -5.3789067 -0.19011116 21
2.4566941 -2.3824644 -1.5959287 48
7.5473013 -6.0078664 -0.16872764 12
4.4166446 -4.2846127 -0.17928928 34
4.1621943 -3.6605785 -1.5518731 37
5.8096666 -5.6380367 -1.6194137 59
1.8297008 -1.9580095 -0.031292439 1
6.6649299 -5.863739 -1.3813947 29
5.8962603 -5.7240467 -1.0462787 45
5.893991 -5.7237968 -0.048023462 51
6.6594982 -5.8630686 -0.95604122 52
1.8208735 -1.9506195 -0.24918395 1
3.2741177 -2.883523 0.10136223 11
5.4730844 -4.8219142 -0.51031429 17
5.8896828 -5.7236371 -0.67071593 30
2.9224818 -2.3313498 0.10865557 15
4.1294665 -4.0144067 0.10033047 42
5.7690492 -4.6038556 -0.47329843 12
2.2345722 -1.9700525 0.17337441 19
2.9421403 -2.8621414 0.16708231 20
4.185297 -4.0729647 -0.30625844 24
2.7926102 -2.4637671 0.45711684 45
2.5029004 -2.4356816 0.28497708 39
6.3295054 -5.0565376 -0.33034778 48
5.209765 -5.5928006 -0.2671535 3
2.2306435 -1.9686399 0.79705036 16
2.4461856 -2.3880656 -1.5942376 45
5.9170222 -4.7422495 -0.13263392 8
3.6100447 -3.5254276 -0.14702153 50
4.1356125 -3.6615939 -1.5464804 48
5.7797155 -5.6463084 -1.6162744 54
3.7250738 -3.2992091 -0.00017797947 56
6.6030059 -5.8502736 -1.3727833 30
5.8545442 -5.7213807 -1.0422364 44
5.2539334 -4.2153187 0.038903356 37
4.2303414 -4.135519 -0.034582973 51
6.6013274 -5.8508277 -0.95046955 49
3.2615447 -2.8917112 0.10126972 16
5.5287104 -4.9035811 -0.51701325 46
5.8468723 -5.7218533 -0.66811025 19
4.170424 -3.3507767 0.15549445 9
4.1011391 -4.0148072 0.099982738 15
2.2280271 -1.9774513 0.17337477 11
2.9497654 -2.8886604 0.16805887 19
4.1632085 -4.0784354 -0.30562949 26
2.79333 -2.4809232 0.45857918 54
6.224627 -5.0084476 -0.32578391 21
2.2381983 -1.989248 0.80222642 41
5.8664379 -5.2159309 -0.18293428 20
2.4326646 -2.3915074 -1.5908561 39
3.6034179 -3.5436146 -0.14725399 27
4.1141815 -3.6683176 -1.5432445 44
5.7431951 -5.6499453 -1.6115661 24
3.7105498 -3.3095291 -0.00017738342 66
6.5442047 -5.8390789 -1.3647866 29
5.8034267 -5.7111669 -1.0366783 9
5.2360754 -4.2311187 0.038880825 37
6.5511951 -5.8473525 -0.94618344 40
3.2275679 -2.8817716 0.10052669 24
5.1440907 -5.5884056 0.088186502 45
5.9817634 -5.3428349 -0.5611192 39
5.6164064 -4.5449347 0.21000481 26
5.6592031 -4.5812273 -0.46689773 28
3.4360452 -3.7354441 -0.29574329 16
3.6293695 -3.2439404 0.2833122 12
5.5194378 -4.9350791 -0.34514552 45
2.7876117 -2.4933054 0.45906699 52
7.3715115 -5.9737687 -0.3868953 13
1.9040314 -1.8802414 0.48778558 2
5.8660717 -5.2523828 -0.1834926 18
2.4191494 -2.3948839 -1.5874746 44
7.3453922 -5.9717331 -0.16557711 27
4.104218 -3.6852303 -1.5443223 54
3.7019508 -3.325134 -0.00017690659 55
5.1058784 -5.5800381 -0.088290572 72
6.4826231 -5.8249035 -1.3561752 29
4.8645062 -3.9590092 0.036223769 27
6.4893346 -5.8329644 -0.9401831 44
3.727644 -4.0766759 -0.51583093 57
3.2026212 -2.879652 0.10006261 26
4.225944 -4.6232281 0.072720766 12
6.4852133 -5.8333397 -0.61024982 41
5.2719808 -4.2967539 0.1976856 56
1.9073889 -1.893466 0.046814203 1
6.2526588 -5.097877 -0.51732242 21
