# .PCD v0.7 - Point Cloud Data file format
VERSION 0.7
FIELDS x y z intensity
SIZE 4 4 4 4
TYPE F F F F
COUNT 1 1 1 1
WIDTH 1390
HEIGHT 1
VIEWPOINT 0 0 0 1 0 0 0
POINTS 1390
DATA ascii
6.851541 2.610878 -0.6844182 60
5.8425937 2.9079213 0.15188313 50
6.8775792 2.6194234 0.085700989 62
5.8554549 2.9130487 -0.45730305 68
6.3073335 2.7608571 -0.56204414 59
5.4251695 3.0369978 0.18096256 52
6.3388247 2.7733216 0.12079144 71
5.3994689 3.0213742 -0.39651775 66
6.8827109 2.6172533 -0.42881107 42
5.8577714 2.9103746 0.38094807 34
6.3428264 2.7724347 0.2820406 36
5.8403792 2.9004641 -0.30373478 51
6.3179107 2.7602324 -0.36130714 102
5.8320804 2.8950715 0.79948235 30
6.342135 2.7708139 0.56501579 57
5.4041533 3.0202818 -0.25220203 68
6.8952804 2.6179018 -0.25753593 57
5.8457446 2.9005809 1.7486019 13
6.3583627 2.775259 1.2649317 38
5.8430657 2.897985 -0.15174866 50
2.8325391 1.2316227 -1.4402766 15
5.4410386 3.0284414 -0.10867405 48
6.3585324 2.7634544 -0.20175171 102
3.4638667 1.7111979 -1.0815263 43
2.5362902 1.1017542 -0.55304527 6
5.8676314 2.8974166 2.0980835e-05 51
6.9190011 2.6117163 -0.086074829 60
2.4843121 1.2267399 -0.43104553 2
6.3513055 2.7576776 -0.88133097 27
5.4363666 3.0221152 0.036169052 54
6.3735709 2.7660241 -0.040360451 70
5.8455892 2.8840003 -0.70210791 59
6.894608 2.5983868 -0.68776417 60
5.8747325 2.8970976 0.15244102 52
6.9128814 2.6052718 0.086026192 70
5.8870606 2.9031792 -0.4589777 68
6.3425364 2.7499223 -0.56432247 66
5.453217 3.0277452 0.18154526 60
6.3704839 2.7607212 0.12121105 74
5.4204526 3.0083203 -0.39728451 53
6.9254422 2.6058674 -0.43090439 34
5.8965554 2.9040217 0.38280869 30
6.3813252 2.7640934 0.28334332 36
5.8714738 2.8916712 -0.30485153 51
6.3526902 2.7503743 -0.36277103 104
5.8630214 2.8862352 0.80240726 28
6.3773808 2.7597437 0.56729412 55
5.4321408 3.0110888 -0.25301647 68
6.9343143 2.605062 -0.25865269 54
5.8731694 2.8886819 1.7537785 10
6.3964257 2.766655 1.2706699 39
5.8741746 2.8891807 -0.15230656 45
2.8363938 1.2227178 -1.4402761 15
5.4645276 3.0190711 -0.10895348 49
6.4039006 2.7592878 -0.20291424 102
3.4588494 1.6952224 -1.0782914 43
2.5289311 1.0891271 -0.5506916 5
5.8946662 2.8877692 2.0027161e-05 54
6.9538493 2.5985594 -0.086400986 60
2.4812675 1.2150192 -0.42981625 2
6.3932195 2.7507162 -0.88587666 33
5.4638705 3.013731 0.036286354 58
6.4116235 2.7586327 -0.040546417 63
5.8831983 2.8796072 -0.70553541 58
6.9400487 2.5906439 -0.69148159 52
5.9053559 2.8891726 0.15299892 52
6.9589553 2.5963168 0.086492538 66
5.9181638 2.8941598 -0.4606514 63
6.3809247 2.741467 -0.566926 104
5.4772334 3.0173635 0.18201065 57
6.4090047 2.7522049 0.12176895 104
5.4583726 3.0057321 -0.39933205 50
6.9564967 2.5912523 -0.43230057 47
5.9133296 2.8879585 0.38327312 28
6.412972 2.7512565 0.28432083 38
5.8994861 2.8799243 -0.30578232 52
6.3916211 2.7407784 -0.36444664 103
5.8980365 2.8779402 0.80582047 28
6.408483 2.7480059 0.56924725 52
5.4596076 3.0026875 -0.25383091 68
6.9841304 2.5973816 -0.26018906 57
5.9174438 2.8861289 1.7641315 9
6.4277472 2.7536087 1.2749748 39
5.9021945 2.8774214 -0.15277195 42
2.8408561 1.2123156 -1.4402766 16
5.4895854 3.0067077 -0.10923195 49
6.4397178 2.7467737 -0.20372772 101
3.0942826 1.5025001 -0.96291542 15
2.5292978 1.0783129 -0.54990673 5
5.9268012 2.8766255 2.0027161e-05 53
6.9970918 2.5855341 -0.086819649 62
2.4785914 1.202467 -0.42858601 2
6.4288135 2.7381482 -0.8894124 35
5.4924283 3.0032787 0.036401749 58
6.4511313 2.7476516 -0.04073143 66
5.9151835 2.8684354 -0.70810509 52
6.9756494 2.5748448 -0.69408417 43
5.9374967 2.8779764 0.15355778 52
7.0059505 2.5846386 0.086957932 58
5.9538674 2.8846297 -0.46260452 52
6.420279 2.7305431 -0.56952953 103
5.5163302 3.012598 0.18294144 61
6.4448142 2.7396464 0.12225819 105
5.4833674 2.9933548 -0.40035439 49
6.9959245 2.5767808 -0.43416119 38
5.9454398 2.8767023 0.3846693 27
6.4598002 2.7433543 0.28594971 42
5.9315829 2.8687181 -0.30689812 51
6.4273629 2.7282577 -0.36591053 103
5.9371409 2.8701253 0.80972099 26
6.4478707 2.736959 0.57185078 54
5.484612 2.9903083 -0.25448132 68
7.0236182 2.5828061 -0.26130486 43
5.9418969 2.8711457 1.7682724 7
6.4667792 2.7423205 1.280715 41
5.9343085 2.8662033 -0.15332985 42
2.8419423 1.2004848 -1.4385858 14
5.5146279 2.9942031 -0.10951138 49
6.4792075 2.7355962 -0.20465851 103
3.0546432 1.4694419 -0.94889736 17
2.5260062 1.0659847 -0.54833889 6
5.9625392 2.8670154 2.0027161e-05 52
7.0511556 2.5775709 -0.087378502 59
2.4756498 1.1903815 -0.42735672 2
6.4712358 2.7295747 -0.89395761 35
5.5239739 2.995533 0.036541939 60
6.4906459 2.7364211 -0.040917397 66
5.947166 2.8570704 -0.71067572 55
7.0149703 2.5601826 -0.69705868 44
5.9768453 2.8700414 0.1543026 51
7.0525031 2.5738783 0.087423325 66
5.9998717 2.8811002 -0.46539497 58
6.4518142 2.7174034 -0.57148266 68
5.5479045 3.0047531 0.18363953 57
6.4875121 2.7311006 0.12288666 105
5.5113339 2.9836993 -0.40163422 50
7.0348926 2.5632796 -0.43602085 33
5.9842515 2.8697429 0.38652897 23
6.5020165 2.7358704 0.28741455 44
5.9770904 2.8663116 -0.30875969 55
6.4658303 2.7193213 -0.36758614 75
5.975265 2.8641534 0.81362057 25
6.4904609 2.7283416 0.57478046 57
5.5090785 2.9787502 -0.25513363 65
7.066402 2.57057 -0.2625618 43
5.9797616 2.8637366 1.7765541 7
6.4976058 2.7300086 1.2850199 45
5.9654202 2.856874 -0.1538887 37
2.8490434 1.1929488 -1.4402766 15
5.548655 2.99014 -0.11000061 49
6.5135894 2.7260346 -0.2054739 60
3.0383859 1.4498854 -0.94242764 21
2.5293427 1.058044 -0.54833889 6
6.0076203 2.8654914 2.0027161e-05 60
7.0893044 2.566299 -0.087751389 39
2.4722424 1.1791959 -0.42612648 2
6.5054069 2.7199407 -0.89749289 36
5.5544934 2.9895339 0.036681175 61
6.5250449 2.7268143 -0.041080475 61
5.9812427 2.8503494 -0.71367407 50
7.0566888 2.5503163 -0.70040417 43
6.0074916 2.8615704 0.1548605 48
7.0981698 2.5653057 0.087889671 54
6.0341096 2.8742509 -0.46734715 60
6.4897542 2.7094045 -0.57408619 104
5.5784507 2.9986625 0.18433762 61
6.5218949 2.721488 0.12337494 105
5.541779 2.9777083 -0.40316772 46
7.091742 2.5587864 -0.439044 33
6.0256906 2.8663683 0.38862228 27
6.5400882 2.7277393 0.28871727 42
6.004107 2.8561039 -0.30969143 54
6.5075259 2.7128229 -0.3694706 74
6.009336 2.8572979 0.81703281 24
6.5284419 2.7202058 0.577384 45
5.5430627 2.9746585 -0.25627232 64
7.1007695 2.5578423 -0.26353836 43
6.0061774 2.8532271 1.7817316 7
6.5424762 2.7247128 1.2921944 53
6.0068746 2.8535633 -0.15472603 45
2.8536038 1.1820002 -1.4402776 15
5.5883193 2.9838839 -0.11056423 51
6.5461745 2.7101812 -0.20617867 68
3.033483 1.4332719 -0.9391942 22
2.5116415 1.0393257 -0.54363346 6
6.0294337 2.8475256 1.4305115e-05 51
7.13345 2.5499353 -0.088177681 38
2.4662356 1.1641998 -0.42428303 2
6.541472 2.7055578 -0.90103531 33
5.5835786 2.9775963 0.036790848 57
6.5724349 2.7170229 -0.041319847 60
6.0137258 2.8375449 -0.71625042 52
7.1039395 2.536592 -0.70412922 42
6.0401406 2.8487158 0.15541172 46
7.1272483 2.5435109 0.088114738 62
6.060039 2.8568087 -0.46846962 63
6.5337453 2.6970253 -0.5770216 103
5.6080909 2.9856448 0.18491459 61
6.5549541 2.7044368 0.12378693 104
5.5783572 2.9685631 -0.40496445 48
7.1428914 2.5462842 -0.44160938 30
6.0547204 2.851716 0.38977814 27
6.5879378 2.7166991 0.29033947 39
6.0444474 2.8455906 -0.31118584 56
6.5405221 2.6958156 -0.37073231 67
6.0387197 2.841609 0.81946373 20
6.5688014 2.7061248 0.57998085 39
5.5796657 2.9655108 -0.25741863 101
7.1524138 2.5440521 -0.26508141 48
6.0420632 2.840601 1.7889719 7
6.5829473 2.7092671 1.2979279 52
6.0404906 2.838582 -0.1552906 45
2.8577123 1.1720319 -1.4402776 18
5.6199088 2.9755883 -0.11098289 57
6.5888925 2.7009616 -0.2072258 68
3.0280032 1.4177732 -0.93595886 21
2.5188847 1.0320382 -0.54441643 5
6.0719438 2.8417192 1.4305115e-05 57
7.1758027 2.5382681 -0.088596344 35
2.459343 1.1509881 -0.42243862 2
6.5765786 2.6932349 -0.90457106 36
5.6151557 2.9693079 0.036931038 47
6.5966868 2.7001228 -0.041412354 61
6.0416093 2.8249574 -0.71839237 53
7.1503043 2.5250392 -0.70784712 50
6.0790305 2.8411579 0.15615559 48
7.1733594 2.5331788 0.088581085 60
6.0947843 2.8485222 -0.47042274 63
6.5647941 2.6843963 -0.57897472 103
5.6321034 2.9744983 0.18537903 56
6.6009059 2.6978164 0.12448502 70
5.6128812 2.9630947 -0.40675545 48
7.1781011 2.5306277 -0.4432354 32
6.0935864 2.8440742 0.39163876 29
6.6228118 2.7054162 0.29147911 42
6.0755763 2.83567 -0.31230259 56
6.5716166 2.6831698 -0.37198925 69
6.0660996 2.8299589 0.82190132 19
6.6035762 2.6948729 0.58225918 39
5.6071458 2.9563136 -0.25823307 68
7.1985192 2.5335894 -0.26647663 46
6.0794673 2.8336058 1.7972546 8
6.6205773 2.7004576 1.303668 51
6.0783772 2.8331022 -0.15603447 42
2.8613801 1.1630492 -1.4402781 17
5.6504703 2.9690819 -0.11140156 56
6.6232743 2.6907849 -0.20804024 57
3.025454 1.4050093 -0.9338026 21
2.5148458 1.0211692 -0.54284859 5
6.1026082 2.8327365 1.335144e-05 55
7.2143817 2.5250344 -0.088968277 32
2.4523902 1.1378374 -0.42059422 2
6.6070676 2.6815162 -0.90760136 36
5.6386218 2.9590898 0.037023544 47
6.6384959 2.6929193 -0.041622162 61
6.0757079 2.817677 -0.7213912 48
7.1957974 2.515708 -0.71156406 44
6.109694 2.8321376 0.15671444 45
7.2232528 2.5238948 0.089092255 57
6.1222987 2.8366876 -0.47181892 66
6.6106114 2.6775794 -0.58222961 103
5.6631856 2.9669394 0.18607807 58
6.6320596 2.684916 0.12490463 75
5.6368222 2.9518719 -0.40777874 50
7.2237153 2.5212245 -0.44556141 36
6.1133609 2.8299499 0.3923378 28
6.6613841 2.6954336 0.29278183 44
6.1103292 2.8272533 -0.31360531 48
6.6175094 2.6763411 -0.37408257 74
6.1042781 2.8231616 0.82580185 20
6.638351 2.6834173 0.58453751 37
5.6417098 2.9506674 -0.25937271 68
7.2408576 2.5215383 -0.26773357 49
6.1239047 2.829638 1.8076067 13
6.6628013 2.6905975 1.3101254 43
6.1136413 2.8236089 -0.15668678 42
2.8654218 1.1530533 -1.4402776 16
5.6749883 2.9567299 -0.11168098 53
6.6623025 2.6795831 -0.20897102 68
3.0198426 1.3896089 -0.93056822 18
2.5038376 1.0065327 -0.539711 5
6.1342635 2.8214469 1.4305115e-05 54
7.245831 2.5076823 -0.089248657 72
2.4491653 1.1259675 -0.41936398 2
6.645843 2.67027 -0.9116416 36
5.6666589 2.9486194 0.037139893 46
6.6775489 2.6816545 -0.041807175 68
6.1071887 2.8064132 -0.72396183 46
7.2158265 2.4944806 -0.71267986 74
6.1413455 2.8208098 0.15727329 45
7.2736058 2.513031 0.089605331 80
6.1647992 2.8302817 -0.47432995 68
6.6458201 2.6648731 -0.58450794 101
5.694797 2.9582105 0.18677616 66
6.667376 2.6721649 0.12539196 101
5.6754327 2.9468942 -0.40982533 48
7.2286973 2.4946923 -0.44532871 53
6.1413503 2.8169184 0.39350033 29
6.7078538 2.6870275 0.29441071 42
6.1419539 2.8158994 -0.31472206 49
6.6564775 2.6651015 -0.37575722 65
6.1357512 2.811758 0.82872581 20
6.684691 2.6750417 0.5877924 38
5.6768107 2.9438372 -0.26051235 68
7.2496152 2.4962492 -0.26773357 74
6.1477952 2.8146791 1.8117485 9
6.7050395 2.6804681 1.3165817 35
6.1416421 2.8105693 -0.15715122 44
2.869431 1.143043 -1.4402776 15
5.7030416 2.9460788 -0.11203098 52
6.697618 2.6666651 -0.20978546 60
3.0176654 1.375864 -0.92841148 17
2.4964027 0.99343681 -0.53735733 5
6.1659112 2.8099718 1.4305115e-05 55
7.2318358 2.4746032 -0.088968277 67
2.4494834 1.1157722 -0.41874886 2
6.6998324 2.6634855 -0.91770267 40
5.7058682 2.9424977 0.037326813 44
6.7240386 2.6731071 -0.042040825 63
6.1495242 2.799912 -0.72781706 48
7.205646 2.4628377 -0.71082067 45
6.169353 2.8076391 0.15773869 40
7.2293439 2.469523 0.088953018 73
6.200068 2.8203092 -0.47628307 68
6.6847243 2.6534266 -0.58711147 102
5.7299695 2.9511299 0.1875906 66
6.7101226 2.6621509 0.12602139 101
5.7034297 2.9362035 -0.4111042 46
7.2037778 2.4565802 -0.44323635 30
6.1734481 2.8042979 0.3948946 33
6.7510953 2.6756787 0.29587555 44
6.1740613 2.8032818 -0.31583977 54
6.7033372 2.6553993 -0.37785053 55
6.1785531 2.8040185 0.83311367 21
6.7347589 2.6678433 0.59137249 50
5.7048221 2.9331417 -0.26132584 68
7.2393641 2.4644847 -0.26703644 55
6.1857314 2.8059688 1.8200302 7
6.743628 2.668632 1.3223219 40
6.1696248 2.7973723 -0.15761757 47
2.8769727 1.1338491 -1.441968 16
5.7351613 2.9360929 -0.11244869 47
6.7445483 2.6567512 -0.21094894 64
3.0156674 1.3616238 -0.92625475 18
2.4963784 0.98284245 -0.53657246 4
6.2016902 2.7988701 1.4305115e-05 63
7.2176957 2.4416561 -0.088689804 59
2.4497604 1.1055899 -0.41813374 2
6.7423205 2.6531582 -0.92224836 37
5.741035 2.935307 0.037488937 43
6.7598491 2.65869 -0.04220295 61
6.1887479 2.7904301 -0.73124409 53
7.1919847 2.4287639 -0.70859098 54
6.2087684 2.7981515 0.15848255 46
7.2076039 2.4340367 0.088580132 58
6.2317014 2.8084879 -0.47795677 68
6.7199206 2.6402807 -0.5893898 101
5.7616029 2.9420185 0.18828869 59
6.760323 2.6547904 0.12678909 75
5.7349782 2.9271631 -0.41263962 46
7.2047391 2.4288683 -0.44277191 31
6.2123313 2.7958436 0.39675522 28
6.7896934 2.6649566 0.29717827 42
6.2124724 2.7959094 -0.3173275 56
6.7455745 2.6462822 -0.37973499 50
6.2167859 2.7965426 0.83701324 27
6.7737231 2.6559596 0.59397507 49
5.7328315 2.9222846 -0.26214027 66
7.2214007 2.4302754 -0.26605892 67
6.2201562 2.7954483 1.8272772 7
6.7817492 2.6577401 1.3280621 48
6.2080474 2.7900105 -0.15836143 48
2.8771424 1.1234875 -1.4402776 16
5.7621846 2.9271188 -0.11279774 53
6.7863832 2.6486349 -0.21199703 55
3.012898 1.3489947 -0.92409801 15
2.4921446 0.97214508 -0.53500366 4
6.2396607 2.7924457 1.4305115e-05 63
7.1992002 2.4088254 -0.088363647 54
2.438982 1.0910058 -0.41567516 2
6.7765012 2.6420536 -0.92578411 33
5.7716308 2.9281163 0.037628174 46
6.7979836 2.6490602 -0.042388916 61
6.222898 2.7823381 -0.73424244 49
7.1806951 2.3998437 -0.70673227 54
6.2540383 2.7949462 0.15941334 41
7.1966662 2.4037881 0.088346481 63
6.2737699 2.8024554 -0.48046875 68
6.7546458 2.6281018 -0.59166718 67
5.7927279 2.9337373 0.18898678 56
6.7989106 2.6439528 0.12734699 74
5.7624612 2.9171424 -0.4139185 42
7.1971841 2.401166 -0.44184113 36
6.250258 2.7893314 0.39861584 30
6.8320212 2.6554589 0.29864407 38
6.2509036 2.7883158 -0.31881714 53
6.7803779 2.6340222 -0.38119984 51
6.2477822 2.7856107 0.83993721 23
6.8122268 2.6450248 0.59657955 47
5.760325 2.9122725 -0.26295471 68
7.2104545 2.4000044 -0.26536083 63
6.2505698 2.7842393 1.8334894 7
6.8203387 2.6454334 1.3338022 44
6.2469764 2.7813334 -0.1591053 50
2.891192 1.1173568 -1.4453492 16
5.8009429 2.9213777 -0.11335659 56
6.8216949 2.6350155 -0.21281052 62
3.0070252 1.3337846 -0.92086315 10
2.4918647 0.9620266 -0.53421879 4
6.278626 2.7836165 1.4305115e-05 65
7.1885791 2.3773994 -0.088131905 69
2.4319344 1.0776806 -0.4138298 2
6.8083529 2.6257682 -0.92881441 34
5.8001924 2.9159274 0.037745476 47
6.8445077 2.6397099 -0.042621613 60
6.2580247 2.7718749 -0.73724127 46
7.1663365 2.3672705 -0.70450115 57
6.2856965 2.7828131 0.15997124 46
7.1860242 2.3723807 0.088114738 70
6.305407 2.790225 -0.48214245 68
6.800982 2.6188354 -0.59492207 68
5.8243728 2.9242644 0.18968487 55
6.8304925 2.6288247 0.12776661 69
5.7904458 2.9059629 -0.41519833 53
7.1755948 2.3647728 -0.43998146 33
6.2896581 2.7793174 0.40047646 31
6.8715529 2.6418738 0.29994678 33
6.2903228 2.7783003 -0.32030582 58
6.8160872 2.6191845 -0.38266563 57
6.2833724 2.7739182 0.84335041 21
6.8437467 2.6298103 0.59853172 46
5.7954659 2.9046845 -0.26409435 63
7.1770177 2.3610764 -0.26382542 66
6.2814593 2.7717619 1.8397007 8
6.8736138 2.6385345 1.342412 50
6.2895761 2.7740355 -0.15994358 50
2.8851085 1.10287 -1.4402781 18
5.8295035 2.9090257 -0.11370564 50
6.864922 2.6228366 -0.21385765 55
3.0083671 1.3212051 -0.91978455 8
2.4843807 0.94868946 -0.53186607 4
6.3070989 2.7686257 1.4305115e-05 57
7.1778255 2.3460808 -0.087899208 58
2.428443 1.0660076 -0.41260052 2
6.854547 2.6161332 -0.93386507 47
5.8318152 2.9063663 0.037884712 41
6.8765597 2.623158 -0.042761803 66
6.2827125 2.7553067 -0.73895502 50
7.1522479 2.3335781 -0.70227098 56
6.328815 2.7742066 0.16080952 46
7.1718545 2.3385887 0.087835312 59
6.3411756 2.778307 -0.48409462 68
6.8398881 2.6064348 -0.59752607 68
5.8596005 2.9163857 0.19050026 57
6.8732638 2.6177754 0.12839413 71
5.8184247 2.8946218 -0.4164772 54
7.1610236 2.3322935 -0.43858719 39
6.3249278 2.7685552 0.40210342 30
6.9106154 2.6292424 0.3012495 36
6.3182855 2.7643347 -0.32123661 59
6.8587928 2.6081533 -0.38455009 66
6.3221183 2.7646923 0.84725094 21
6.8826957 2.6172409 0.60113621 41
5.827045 2.8951054 -0.26507092 59
7.1624045 2.3285956 -0.26298809 66
6.3194194 2.7621994 1.8479834 7
6.9085336 2.6243086 1.347435 47
6.3212047 2.7616711 -0.16050148 48
2.8955331 1.0958624 -1.4436588 17
5.8642097 2.9020939 -0.11419487 51
6.903501 2.6113729 -0.21478939 55
3.0021367 1.3066096 -0.91654968 5
2.4875131 0.94044685 -0.53186512 4
6.3455882 2.7604618 1.4305115e-05 59
7.1669393 2.3148623 -0.087665558 60
2.428525 1.0559483 -0.41198444 2
6.904016 2.6088152 -0.93942022 46
5.8629384 2.8976436 0.038023949 33
6.9226413 2.61447 -0.042993546 62
6.3209949 2.7471371 -0.74238205 55
7.125833 2.2988434 -0.69892502 60
6.356318 2.7611723 0.16127396 46
7.1643434 2.3098812 0.087648392 63
6.3796353 2.7699757 -0.48632717 68
6.8899798 2.5980139 -0.60110569 59
5.8912625 2.9065261 0.19119835 52
6.9197831 2.6078763 0.12909317 71
5.8607144 2.8901882 -0.41877937 55
7.1421113 2.2999673 -0.43695831 29
6.3597169 2.7586918 0.40373135 30
6.9492173 2.6175799 0.30255222 42
6.3457475 2.7513127 -0.3221674 59
6.9047866 2.5994697 -0.38664341 66
6.3567519 2.754765 0.85066223 24
6.9291015 2.607244 0.60439014 38
5.8622117 2.8871121 -0.26621151 59
7.1590724 2.2999101 -0.26256847 60
6.3644795 2.7554731 1.8583364 8
6.9471202 2.6112518 1.3531742 44
6.3601689 2.7522931 -0.16124535 51
2.8959432 1.0844779 -1.441968 16
5.9030299 2.8956995 -0.11475277 51
6.9500184 2.6012759 -0.21595287 57
2.985455 1.2869744 -0.91008043 4
2.4834332 0.92900944 -0.53029728 3
6.3808999 2.749373 1.4305115e-05 53
7.1597362 2.284965 -0.087479591 67
2.4213061 1.0427732 -0.41014099 2
6.9469838 2.5959945 -0.94396639 46
5.8950725 2.8866916 0.038163185 36
6.9729409 2.6056929 -0.04324913 59
6.363421 2.7392101 -0.74623775 55
7.1186366 2.2691154 -0.69743776 73
6.38796 2.7484484 0.16183281 51
7.1456866 2.2763596 0.087322235 69
6.4112611 2.7571468 -0.48800087 68
6.9400926 2.5892787 -0.60468578 56
5.9157376 2.8929715 0.19166279 40
6.9625707 2.5962796 0.12972069 71
5.8922849 2.8802299 -0.42031384 50
7.1314664 2.2677183 -0.43579578 53
6.395472 2.746388 0.40535927 30
6.9999633 2.60744 0.30434322 42
6.3851619 2.7406459 -0.32365513 67
6.9442163 2.5852957 -0.38831806 66
6.3923459 2.7424059 0.85407543 27
6.9829955 2.599731 0.60829544 37
5.9045796 2.8824105 -0.26767731 60
7.1480069 2.2688575 -0.26187134 70
6.4060197 2.7469425 1.8676529 9
6.9930758 2.6007042 1.3603487 46
6.3991399 2.7426791 -0.16199017 50
2.9032989 1.0751147 -1.4436584 16
5.9351859 2.884532 -0.11517143 48
6.9932542 2.5882769 -0.21700001 55
2.4868212 0.91990137 -0.53029728 3
6.4240479 2.7400932 1.4305115e-05 54
7.1413589 2.2502947 -0.087153435 66
2.41784 1.0307932 -0.40891075 2
6.9899507 2.5828924 -0.94851208 44
5.9272065 2.8755398 0.038303375 36
7.016212 2.5925941 -0.043457985 56
6.3990293 2.7267799 -0.74923658 48
7.1079106 2.2370329 -0.69557905 58
6.4310994 2.7391219 0.16267014 53
7.1349044 2.2441549 0.087089539 55
6.4543653 2.7476983 -0.49051285 101
6.964499 2.5693431 -0.60598755 52
5.9478908 2.8817286 0.19236088 35
6.9983068 2.5804305 0.13020992 102
5.9243569 2.8690543 -0.42184925 50
7.1054435 2.2308016 -0.43370342 41
6.4275451 2.7323046 0.40675545 32
7.0469766 2.5955787 0.3059721 39
6.4282603 2.7312856 -0.32533073 64
6.9836316 2.5708685 -0.38999271 64
6.4352422 2.7329268 0.85846329 27
7.0186648 2.5837622 0.61057377 41
5.9294953 2.8677111 -0.26832867 59
7.1372008 2.2366676 -0.2611742 69
6.4409394 2.734014 1.8748999 11
7.0321088 2.5859189 1.3660879 51
6.4312387 2.7285767 -0.16254902 51
2.9104104 1.0662198 -1.4453373 16
5.966804 2.8742108 -0.11557102 39
7.0360065 2.5762167 -0.21802521 52
2.8881164 1.2205901 -0.87772036 8
2.4678855 0.90312433 -0.52557945 2
6.4593358 2.7285428 3.528595e-05 57
7.1220183 2.2182722 -0.08680439 65
2.417573 1.0212302 -0.40828514 2
7.0170798 2.566514 -0.95101452 36
5.958303 2.8662729 0.038460732 33
7.0552421 2.5790715 -0.043622017 53
6.4414554 2.7183404 -0.75307083 50
7.0928273 2.2051077 -0.69332552 57
6.4663825 2.727531 0.16334248 50
7.1273828 2.2144904 0.08692646 66
6.4969773 2.7391033 -0.49300289 68
7.0141425 2.5612769 -0.60954571 52
5.9862123 2.8758407 0.19331169 37
7.0368505 2.5681725 0.13079071 102
5.9625983 2.8632116 -0.42387676 41
7.0975137 2.2024899 -0.4327507 39
6.4733377 2.7264729 0.40910244 33
7.0780425 2.5804033 0.3069706 40
6.4630332 2.7208004 -0.32661247 67
7.0221133 2.5586295 -0.39164543 69
6.4735122 2.7238851 0.86238289 27
7.0571284 2.5713873 0.61320019 40
5.964169 2.8601246 -0.26944923 61
7.1254535 2.2070713 -0.26045227 70
6.4677415 2.7201285 1.8800964 10
7.081286 2.5773854 1.3740034 51
6.4660268 2.7180767 -0.1631794 53
2.9071136 1.05409 -1.4419565 17
5.994349 2.8630257 -0.11592007 43
7.0745826 2.5637698 -0.21895599 61
2.8957009 1.2124944 -0.87879848 9
2.5151219 0.91096354 -0.53499317 1
6.497869 2.7194595 3.528595e-05 56
7.1106019 2.1875196 -0.086571693 69
2.4101834 1.0082088 -0.40644073 2
7.0591311 2.5553842 -0.95556021 36
5.9966588 2.8602734 0.038647652 45
7.0900855 2.5651889 -0.043784142 55
6.4724498 2.7061706 -0.75564146 44
7.0810657 2.1757245 -0.69146681 60
6.5122895 2.7214894 0.16427326 51
7.1002746 2.1802735 0.086506844 54
6.5281177 2.7267694 -0.49467659 68
7.0605378 2.5503187 -0.61279964 55
6.0250945 2.8686757 0.19424248 40
7.0796285 2.5558138 0.13141918 101
5.997788 2.8543863 -0.42566776 35
7.0818734 2.1719141 -0.43135452 38
6.5081401 2.7157536 0.41073036 33
7.1166358 2.5677738 0.30827427 33
6.5052066 2.7132001 -0.32828808 65
7.0681367 2.5488811 -0.39373875 62
6.5118241 2.7146258 0.86628342 21
7.0998178 2.5589008 0.61612988 47
5.9993863 2.8512955 -0.27058887 59
7.1063571 2.1740003 -0.25947475 69
6.4985948 2.706449 1.8863087 8
7.1235614 2.5646539 1.3804617 55
6.5086989 2.7093248 -0.16401577 56
2.9107757 1.0439353 -1.4419565 17
6.0296111 2.8540597 -0.11640835 46
7.1098361 2.5485005 -0.21976948 101
2.896358 1.2009025 -0.87771988 8
2.6069064 0.93392897 -0.55381966 0
6.5405765 2.7105484 3.528595e-05 61
7.0952325 2.1557074 -0.086292267 70
2.4063864 0.99676466 -0.40521145 2
7.1016307 2.5427637 -0.96010542 36
6.0355363 2.8529973 0.038834572 44
7.1366553 2.5538993 -0.044016838 61
6.5112529 2.6957293 -0.75906849 38
7.0619369 2.1429033 -0.68886423 63
6.5439181 2.7079191 0.16483116 46
7.0925317 2.1508307 0.086319923 72
6.5707822 2.717689 -0.49718761 68
7.1031861 2.5377274 -0.61572838 48
6.0603843 2.8595681 0.19505692 37
7.1261687 2.5445395 0.13211727 102
6.0329852 2.8453565 -0.42745876 44
7.0702996 2.1413984 -0.43019199 39
6.5544848 2.7082729 0.41305542 33
7.1556697 2.5536613 0.30957603 36
6.536799 2.699626 -0.32940388 57
7.1108527 2.5362687 -0.39562225 70
6.5469499 2.7024808 0.86969566 22
7.1462588 2.5474911 0.61938477 51
6.0309958 2.8405557 -0.27156544 60
7.0947661 2.1433988 -0.25877762 101
6.5437236 2.6984763 1.8966627 9
7.162127 2.5503292 1.3862019 46
6.5476975 2.6987782 -0.16476059 57
2.9178185 1.0349793 -1.4436474 15
6.0648837 2.844883 -0.11689758 45
7.1563735 2.5370297 -0.22093391 102
2.8969674 1.1893229 -0.87664175 6
2.621242 0.92875242 -0.55617237 0
6.5722032 2.6968098 3.528595e-05 48
7.0793567 2.1252675 -0.086013794 69
2.4060211 0.98727894 -0.40459633 2
7.1553493 2.5338511 -0.9661665 42
6.0744376 2.8454843 0.039019585 42
7.1832337 2.5423193 -0.044247627 71
6.5500607 2.6850538 -0.76249504 39
7.0541167 2.1136656 -0.68737793 65
6.5866351 2.6987038 0.16566944 50
7.073175 2.1180272 0.08599472 75
6.6023841 2.7038078 -0.49886227 67
7.1453919 2.5261159 -0.61865759 48
6.0988078 2.8530078 0.1959877 41
7.1722789 2.5342164 0.13281536 101
6.0785489 2.8422408 -0.43001652 46
7.0586028 2.1109824 -0.42902946 39
6.5897717 2.6959596 0.41468334 34
7.202229 2.5419679 0.31120491 36
6.5757699 2.688889 -0.33089352 58
7.1573319 2.5247216 -0.39771557 71
6.5783925 2.6886249 0.87261963 21
7.2035413 2.5410213 0.62361622 62
6.0621085 2.8306875 -0.272542 60
7.0750222 2.1118579 -0.25780106 61
6.5848269 2.6899128 1.9059801 8
7.2002368 2.5370255 1.3919401 44
6.5825257 2.6876292 -0.16541195 59
2.9212346 1.0253 -1.4436474 15
6.1032939 2.8382502 -0.11745644 44
7.2062478 2.527844 -0.22221375 68
3.0293498 1.2319493 -0.91546011 5
2.6280093 0.92135143 -0.55695724 0
6.6107545 2.687048 3.6239624e-05 62
7.0637231 2.0937247 -0.085734367 69
2.4021287 0.9758997 -0.40336609 2
7.1978526 2.520668 -0.97071171 33
6.1097274 2.8360577 0.039182663 39
7.2256017 2.5303845 -0.044457436 64
6.592092 2.6767859 -0.76635075 45
7.0419936 2.0846066 -0.68551874 73
6.6251912 2.6888762 0.16641426 47
7.0571475 2.0877528 0.085715294 74
6.637197 2.6924 -0.50081539 68
7.1842713 2.5116858 -0.62126064 44
6.1268659 2.8401103 0.19656944 45
7.2188363 2.5223556 0.1335144 63
6.1174083 2.8344293 -0.4320631 47
7.05827 2.0840673 -0.42856407 55
6.6250501 2.6834331 0.41631126 31
7.2487912 2.5299826 0.31283379 46
6.6110396 2.676415 -0.33219528 54
7.2000461 2.5115614 -0.39960003 55
6.6245408 2.6805353 0.87749577 23
7.2311893 2.5224242 0.62524319 62
6.0900903 2.8178997 -0.27335644 63
7.0631785 2.0814962 -0.25710297 75
6.6371579 2.6842928 1.9184027 8
7.2462087 2.5248256 1.3991156 67
6.6215281 2.6766262 -0.16615486 52
2.9283977 1.0157733 -1.4453378 17
6.1390834 2.8275714 -0.11794376 48
7.2419095 2.5105801 -0.22302818 103
3.0481391 1.2265882 -0.9197731 6
2.6276622 0.91042948 -0.55617332 0
6.6391129 2.6702652 3.6239624e-05 62
7.052156 2.0622063 -0.085501671 69
2.398356 0.96413994 -0.4021368 2
7.2291055 2.5033154 -0.97374201 39
6.1304917 2.819725 0.039253235 40
7.249948 2.5091152 -0.044549942 103
6.6350713 2.6659498 -0.77020597 55
7.0304704 2.0532012 -0.68366003 72
6.6609778 2.6750083 0.16706562 52
7.0532336 2.0585132 0.085575104 71
6.6803479 2.6814332 -0.50332642 103
7.2085013 2.4905457 -0.62256289 103
6.1626697 2.8293142 0.19738388 46
7.2620559 2.5076303 0.13414288 110
6.1567798 2.8253088 -0.43410969 54
7.0463328 2.0538301 -0.42740154 44
6.6566148 2.6692095 0.41770649 34
7.253799 2.5033622 0.31267071 57
6.6500134 2.665216 -0.33368492 54
7.2352042 2.4955282 -0.40106487 62
6.663341 2.6692042 0.88139534 24
7.2479243 2.4985037 0.62589455 72
6.1294436 2.8088808 -0.27465916 63
7.0477281 2.0489006 -0.25626469 70
6.6720634 2.6699982 1.9256506 8
7.2442508 2.4944048 1.3969622 61
6.6572833 2.6627331 -0.16680622 54
2.9250665 1.0031939 -1.441957 15
6.1743846 2.817749 -0.118433 46
7.2430644 2.4826908 -0.22279453 104
3.052402 1.2159395 -0.9197731 6
2.6419559 0.90506506 -0.55852604 0
6.6929908 2.6648278 3.6239624e-05 66
7.0435853 2.0343671 -0.085314751 72
2.3868518 0.95033169 -0.39967632 2
7.2377992 2.4780674 -0.97374249 41
6.1657777 2.8099203 0.039416313 42
7.2397399 2.4773159 -0.044434547 68
6.6665092 2.6515899 -0.77277565 60
7.0184598 2.0231299 -0.68180132 54
6.7000022 2.6635575 0.16780949 51
7.0411592 2.0283456 0.085342407 74
6.7230411 2.6713605 -0.50583744 101
7.2091746 2.4640508 -0.621912 66
6.1938529 2.8188004 0.19808292 48
7.2400546 2.4731894 0.13358402 105
6.1915507 2.8164458 -0.43590069 55
7.0189214 2.0192838 -0.42530918 47
6.6881614 2.6547952 0.41910267 32
7.2435803 2.4715748 0.31185627 74
6.6964154 2.656723 -0.33554554 44
7.2325273 2.4663906 -0.40043736 63
6.7021432 2.6576376 0.88529587 18
7.2410769 2.4693055 0.62459183 59
6.1714749 2.8034148 -0.276124 61
7.0352731 2.0199995 -0.25556755 55
6.7167993 2.6620917 1.9360027 10
7.2301326 2.4627604 1.3926582 46
6.6921 2.6509557 -0.16745853 54
2.9352441 0.99581671 -1.4453378 15
6.2092032 2.8087955 -0.11892128 43
7.2247529 2.4496727 -0.22198105 102
3.052834 1.2043986 -0.91869497 7
2.6412282 0.89504051 -0.55774212 0
6.7315602 2.6543589 3.6239624e-05 67
7.0314116 2.0042872 -0.085083008 75
2.3901534 0.94199514 -0.39967728 2
7.2196698 2.4451399 -0.97020674 42
6.2042222 2.8026304 0.03960228 41
7.2289701 2.4468837 -0.044317245 71
6.7011666 2.6396728 -0.77577448 58
6.9944863 1.9911232 -0.67882729 46
6.7385669 2.6530461 0.16855526 50
7.0324578 2.0006051 0.085155487 67
6.7578549 2.6592774 -0.50779057 68
7.1950717 2.4312115 -0.61995888 64
6.2291694 2.8086643 0.19889736 52
7.2183299 2.4376669 0.13302517 103
6.2268186 2.8062973 -0.43769169 52
7.0025315 1.9894505 -0.423913 37
6.7340903 2.647212 0.42142868 33
7.2290177 2.4398704 0.31087875 48
6.7275043 2.6432672 -0.33666325 51
7.217957 2.4347348 -0.39918041 59
6.7441773 2.6484594 0.88968277 20
7.223206 2.4351006 0.6223135 48
6.2067342 2.7933378 -0.2772646 57
7.0230517 1.9899821 -0.25486946 63
6.765615 2.6541519 1.9473906 11
7.2200389 2.4312263 1.3890715 44
6.7310958 2.6392565 -0.1682024 54
2.9387031 0.98556423 -1.4453378 16
6.2445178 2.7985525 -0.11940956 43
7.2143054 2.4180832 -0.22139931 103
3.053432 1.1923323 -0.91761637 5
2.6294589 0.88083267 -0.55460358 0
6.7705932 2.6424804 3.6239624e-05 68
7.022963 1.9753971 -0.084897041 104
2.3750172 0.9264636 -0.39660263 2
7.205585 2.412364 -0.96717644 42
6.2468276 2.79566 0.039811134 46
7.2033305 2.4102101 -0.044108391 75
6.739985 2.627821 -0.77920151 51
6.9822221 1.9613118 -0.67696857 54
6.7850461 2.6440282 0.16948509 53
7.016294 1.9695578 0.08487606 74
6.8005614 2.6487041 -0.51030159 68
7.1808276 2.3985014 -0.61800623 66
6.2717919 2.801579 0.19994545 53
7.2116208 2.4073915 0.13274574 102
6.2584472 2.794311 -0.43922615 57
6.9902081 1.9596071 -0.42275047 39
6.7805057 2.6381712 0.42375469 28
7.2109513 2.4057655 0.30974007 45
6.773931 2.6342478 -0.33852291 53
7.1998858 2.4006782 -0.39771557 72
6.779285 2.6349683 0.89309597 21
7.2165332 2.4048324 0.62101173 49
6.2456489 2.7846761 -0.27856636 51
7.0145555 1.9611478 -0.25431156 63
6.8108544 2.6445022 1.9577436 10
7.2098136 2.3997931 1.3854837 57
6.7775502 2.6302094 -0.16913223 54
2.9421239 0.97530222 -1.4453378 16
6.2725244 2.7848558 -0.11975861 44
7.1961331 2.3840857 -0.22058487 104
3.0539832 1.1802783 -0.91653824 6
2.6139007 0.86548376 -0.55068111 0
6.8021646 2.6274767 3.6239624e-05 48
7.0028367 1.943388 -0.084570885 102
2.3634863 0.91247511 -0.39414215 2
7.1838231 2.3772287 -0.96313667 42
6.2858005 2.7868123 0.039997101 47
7.1927104 2.3787723 -0.043992996 72
6.7862201 2.6185961 -0.78348541 55
6.9736743 1.9326711 -0.67548132 48
6.8278136 2.6332769 0.17032337 51
6.9961429 1.937583 0.084550858 65
6.8321042 2.6335616 -0.51197624 63
7.1664405 2.3659234 -0.61605406 103
6.2961583 2.7861423 0.20040989 39
7.1933923 2.3734288 0.13225746 101
6.2937179 2.7837496 -0.44101715 54
6.9777627 1.9298706 -0.4215889 43
6.8269391 2.6288342 0.42607975 32
7.2041221 2.3755746 0.30908775 48
6.820374 2.6249394 -0.34038448 54
7.193047 2.3705316 -0.39687824 74
6.8217921 2.6241183 0.89748287 19
7.1870189 2.3671536 0.61775684 59
6.2736125 2.7709303 -0.27937984 47
7.00209 1.9313345 -0.25361347 66
6.856113 2.6345692 1.9680967 11
7.1957164 2.3672347 1.3811789 58
6.8277516 2.6223087 -0.17015648 52
2.9420657 0.96389675 -1.4436474 16
6.3114953 2.7758231 -0.12031746 47
7.1816134 2.3514848 -0.21988678 68
2.6430001 0.86489344 -0.55617332 0
6.8523936 2.6194291 3.7193298e-05 46
6.9941459 1.9147053 -0.084384918 102
7.1581368 2.3410358 -0.95859051 42
6.3174634 2.7745018 0.040136337 45
7.1781602 2.3461928 -0.04385376 71
6.8250413 2.6062398 -0.78691244 57
6.9611697 1.9030666 -0.67362261 46
6.8631158 2.6194105 0.17097473 52
6.9835725 1.9078813 0.084317207 65
6.8710799 2.6210766 -0.51420784 66
7.1481252 2.3322358 -0.61377573 68
6.3388028 2.7785931 0.20145798 39
7.1750188 2.3396273 0.13176918 101
6.3253331 2.7713761 -0.44255066 53
6.9613404 1.8991971 -0.42019272 36
6.8621926 2.6149426 0.42770767 31
7.18957 2.3429847 0.30811024 49
6.8518977 2.6096501 -0.34150124 49
7.1784902 2.3379846 -0.39562225 75
6.8643041 2.612999 0.90186977 20
7.1800752 2.3371139 0.61645508 45
6.3125396 2.7618284 -0.28068256 43
6.9856429 1.9005885 -0.25277615 66
6.894156 2.6216116 1.9763803 10
7.1814847 2.3347998 1.376873 51
6.8630309 2.6084027 -0.17080688 50
2.9454122 0.95362043 -1.4436474 16
6.3504796 2.766551 -0.12087536 45
7.1593423 2.3165598 -0.21895599 103
2.6385388 0.85324812 -0.55460453 0
6.8951669 2.6082282 3.6239624e-05 44
6.9698958 1.881937 -0.084012032 101
7.1511617 2.3111515 -0.95657015 39
6.3527865 2.7636008 0.040300369 39
7.1558528 2.3112917 -0.043667793 68
6.8638587 2.5936508 -0.79033899 52
6.9600806 1.8766804 -0.67287922 41
6.9021478 2.6067381 0.1717186 53
6.9747424 1.8793278 0.084130287 53
6.8988538 2.6041198 -0.51560307 58
7.1410451 2.302381 -0.61247396 103
6.3778024 2.7691927 0.20238876 37
7.1603007 2.3072062 0.13134956 101
6.364264 2.761991 -0.44459724 55
6.960216 1.8728085 -0.41972828 25
6.8974338 2.6008334 0.42933655 31
7.1748796 2.3105216 0.30713367 51
6.8908782 2.5969882 -0.34298992 54
7.1637912 2.3055744 -0.39436626 75
6.9105363 2.6030221 0.90674591 20
7.1692119 2.3059344 0.61482811 48
6.3514781 2.752492 -0.28198528 50
6.9806523 1.8730826 -0.25235748 35
6.9285798 2.6070533 1.9836273 10
7.159616 2.3000941 1.3711329 47
6.8945498 2.5928802 -0.17136574 50
2.9487023 0.94333172 -1.4436398 16
6.3931222 2.7586269 -0.12148952 43
7.1483207 2.2854619 -0.21835899 68
3.0084348 1.1266184 -0.89927816 66
2.6526866 0.84761238 -0.55695057 0
6.934175 2.5953574 5.2452087e-05 45
6.9077334 2.5840888 -1.1473699 21
7.1402631 2.2801385 -0.95402956 44
6.3844104 2.7509041 0.040452957 43
7.1448007 2.2802143 -0.043535233 71
6.9100986 2.5835991 -0.79460764 52
6.9665656 1.8523693 -0.67286396 10
6.9411473 2.5938234 0.17247868 52
6.9415212 2.5925865 -0.51809883 57
7.1224246 2.2689648 -0.61018038 68
6.4131169 2.757967 0.20321751 44
7.1454225 2.2749138 0.13094616 103
6.4031825 2.7523656 -0.44662952 51
6.9326348 2.5865088 0.43097973 33
7.1638331 2.2794027 0.30633545 56
6.9298282 2.5840859 -0.3444643 59
7.1451249 2.2720766 -0.39288616 75
6.9530358 2.5913587 0.91114807 20
7.158195 2.2748537 0.61321545 47
6.3940778 2.7444878 -0.28343678 52
6.9701962 2.594985 1.992959 13
7.1488204 2.2691321 1.3675613 55
6.9372668 2.5813451 -0.17218781 51
2.9519773 0.93303251 -1.4436398 15
6.4321351 2.7488661 -0.12204838 43
7.1333795 2.2532682 -0.2176609 101
3.0087371 1.1147704 -0.89819956 71
2.6631093 0.84071064 -0.55851936 0
6.9769502 2.583643 5.2452087e-05 54
6.9574847 2.5750489 -1.1541333 18
7.1330438 2.2504234 -0.9520092 33
6.4270864 2.7427297 0.040662766 46
7.1374574 2.2504468 -0.043442726 72
6.948915 2.5704989 -0.79803514 46
6.9914145 2.584837 0.17350197 52
6.9804721 2.5794029 -0.52033138 58
7.1074853 2.2369056 -0.60822821 103
6.444778 2.7449632 0.2039156 37
7.1418729 2.2463627 0.13073635 75
6.4421325 2.7425117 -0.44867611 52
6.9940677 2.5816565 0.43423462 30
7.14887 2.2471895 0.30535793 55
6.9800429 2.5750918 -0.34651184 63
7.1225257 2.2375417 -0.39121151 73
6.9918399 2.5780592 0.91504765 20
7.1470704 2.2438865 0.61158848 51
6.4293637 2.7331014 -0.28457546 38
7.0082173 2.5813203 2.0012417 10
7.1304154 2.2359209 1.3625383 52
6.9800096 2.5695457 -0.17302513 46
2.9552159 0.92272282 -1.4436398 13
6.4711547 2.7388687 -0.12260628 42
7.1297507 2.2247829 -0.21731091 101
3.0234599 1.1082387 -0.9014349 67
7.0234876 2.5730305 5.2452087e-05 51
6.9582191 1.800828 -0.08362484 3
6.9924121 2.5602612 -1.1584377 21
7.1219134 2.2196088 -0.94948387 33
6.4660954 2.7327356 0.040848732 46
7.1338124 2.2219524 -0.043373108 74
6.995194 2.5598955 -0.80231857 41
6.9561906 1.7977123 -0.67063284 1
7.0341973 2.5727782 0.17434025 45
6.9552894 1.7961812 0.083680153 3
7.0231624 2.567348 -0.52284145 50
7.0924058 2.2049828 -0.60627508 47
6.4801059 2.7333279 0.20473099 39
7.1267543 2.2142968 0.13031769 101
6.4847713 2.7339625 -0.45097828 55
6.9523549 1.7928391 -0.4180851 1
7.0367942 2.5695519 0.43632793 30
7.1375871 2.2162933 0.30454445 55
7.0190177 2.5616679 -0.34799957 60
7.111217 2.2067485 -0.39016438 71
7.0343633 2.5658817 0.9194355 20
7.1243978 2.209476 0.60898399 47
6.4646516 2.7214947 -0.2857151 47
6.961144 1.7899199 -0.25094604 2
7.0425982 2.5660982 2.0084887 8
7.115622 2.2040324 1.3582344 63
7.0265126 2.5588498 -0.17395592 46
2.8995271 0.8942399 -1.4149017 5
6.5028052 2.7255406 -0.12302494 44
7.1183677 2.1939912 -0.21673012 101
3.030931 1.09899 -0.90251303 62
7.0662704 2.5607653 5.2452087e-05 47
6.9528356 1.7735643 -0.08348465 1
7.0384669 2.5492988 -1.1645865 18
7.1068625 2.1877317 -0.94645405 44
6.4977317 2.7194157 0.040988922 47
7.118587 2.1899781 -0.043233871 74
7.0302644 2.5449362 -0.8053174 47
6.9392676 1.7675228 -0.66840219 1
7.0769782 2.5604544 0.17517853 44
6.9460101 1.7679496 0.083494186 1
7.0733562 2.5577483 -0.52591038 50
7.0848165 2.175529 -0.60497379 47
6.5228143 2.7245598 0.20577717 41
7.1115003 2.1823692 0.12989902 101
6.516376 2.7205381 -0.45251369 46
6.935349 1.7626595 -0.41668987 0
7.0795226 2.5571847 0.43842125 28
7.1261735 2.1855111 0.30373001 54
7.0654979 2.550724 -0.34986115 58
7.1036 2.177228 -0.38932705 72
7.073154 2.5520897 0.92333603 20
7.1168208 2.1799216 0.60768318 59
6.4999366 2.7096753 -0.28685474 39
6.9324737 1.7567768 -0.2496891 1
7.0769544 2.5506749 2.0157356 8
7.1082196 2.1745744 1.3553638 55
7.0767865 2.5492125 -0.17497826 48
6.5344434 2.7120214 -0.1234436 38
7.1068587 2.1633096 -0.21614742 103
3.0274978 1.085803 -0.90035677 51
7.1128201 2.5495787 5.2452087e-05 45
6.9354062 1.7446418 -0.083205223 1
7.087811 2.5406132 -1.17135 17
7.0992713 2.1582923 -0.94443369 55
6.5478339 2.7135606 0.041244507 46
7.0955701 2.1558151 -0.043047905 75
7.0690579 2.5311065 -0.80874443 44
6.9260802 1.7384396 -0.66654396 1
7.1197572 2.5478592 0.17601585 35
6.9246793 1.7380881 0.08316803 1
7.1081004 2.5436873 -0.5278635 43
7.0691009 2.1450782 -0.60302114 67
6.5613685 2.7151451 0.20670891 36
7.0995622 2.1529684 0.12954903 102
6.5474954 2.708066 -0.45404911 52
6.91822 1.7326169 -0.41529369 0
7.1109672 2.5405159 0.43981743 31
7.1180806 2.1572285 0.3030777 51
7.1153073 2.5420651 -0.35190773 39
7.0993123 2.150187 -0.38869858 74
7.1189685 2.5419726 0.92821026 20
7.1011157 2.1493807 0.60573006 43
6.5310493 2.6972604 -0.28783131 37
6.9188685 1.7289305 -0.24899197 1
7.1181264 2.5388718 2.025054 8
7.0961833 2.1465364 1.3517761 57
7.1148915 2.5377164 -0.17572308 47
2.9609332 0.89171553 -1.4419489 15
6.5725207 2.7036529 -0.1240015 50
7.0829911 2.131752 -0.21521664 68
3.0018554 1.0659742 -0.89173079 50
6.6783147 2.0086899 -1.3947368 23
7.1434131 2.5352497 5.3405762e-05 48
7.125998 2.5276666 -1.1762695 16
7.0832162 2.129127 -0.94140339 51
6.5822253 2.7036161 0.041407585 44
7.0831532 2.1277571 -0.042931557 74
7.1182084 2.5235009 -0.81345558 48
7.1503425 2.5334945 0.17657471 30
7.1541104 2.5334225 -0.530653 41
7.0609012 2.1170421 -0.60171938 68
6.6110311 2.710052 0.20798969 41
7.0836759 2.1225276 0.12913036 101
6.5859895 2.6984472 -0.45609474 50
7.1527963 2.5301495 0.44190979 32
7.0907388 2.1232944 0.30161285 46
7.1500678 2.5277791 -0.3532114 42
7.0834432 2.1197596 -0.38744259 72
7.1685376 2.5328984 0.93357277 22
7.0852857 2.118968 0.60377598 54
6.5658498 2.6861825 -0.2889719 48
7.1665845 2.5293965 2.0364418 9
7.0847812 2.1161199 1.3481894 63
7.1538768 2.5235057 -0.17646694 48
2.9675031 0.88240862 -1.4436398 15
6.615253 2.694272 -0.12462902 47
7.0712247 2.1013212 -0.2146349 66
2.9910207 1.050385 -0.88741732 50
6.6777673 1.9831305 -1.3931675 23
7.1899629 2.5235429 5.3405762e-05 45
7.1646161 2.5132413 -1.1811886 18
7.0677819 2.0976129 -0.93837309 48
6.6175609 2.6911688 0.041570663 45
7.0713639 2.0973334 -0.042816162 72
7.1645017 2.5117979 -0.81773949 47
6.9065022 1.6849141 -0.66356993 4
7.2006583 2.5230637 0.177598 34
6.9208064 1.6871243 0.082982063 9
7.1892715 2.5176649 -0.53260612 32
7.0491338 2.0867257 -0.60009193 67
6.6463838 2.697485 0.20880413 36
7.0641971 2.0898442 0.12864208 103
6.6360583 2.6919456 -0.45890903 48
7.1545949 1.7414699 -0.42878151 4
7.2068152 2.5209861 0.44470119 30
7.0789447 2.092864 0.30079746 42
7.1965671 2.5159903 -0.35507202 45
7.0601516 2.085968 -0.38576794 68
7.2073178 2.5183387 0.9374733 21
7.0735221 2.0885763 0.60214901 46
6.6085277 2.6767483 -0.29043579 48
7.0742164 1.7166748 -0.25415611 6
7.2009053 2.5132785 2.0436897 10
7.0732522 2.0858126 1.3446016 53
7.1966243 2.5103736 -0.17730331 51
2.9670863 0.8710227 -1.4419489 17
6.6580005 2.6846223 -0.12525654 48
7.0593324 2.0709991 -0.21405315 66
2.9946685 1.0399384 -0.88741732 49
6.6884122 1.9609132 -1.3939519 23
7.2365165 2.5115466 5.3405762e-05 58
7.2718787 1.7498655 -0.087020874 9
7.1994824 2.4972844 -1.1854925 15
7.0522113 2.0662365 -0.93534279 48
6.6528859 2.6785116 0.041733742 48
7.0517697 2.0647707 -0.042654037 71
7.1957717 2.4945912 -0.82030964 41
7.2531209 1.7426739 -0.69628382 7
7.2509847 2.5123148 0.17862129 59
7.2922397 1.7507267 0.087361336 9
7.2394919 2.506918 -0.535676 56
7.0334144 2.055398 -0.59813929 68
6.6705995 2.680233 0.20926952 35
7.0560937 2.0606861 0.1283617 105
6.6787534 2.6821518 -0.4612112 52
7.2810121 1.7453399 -0.43599033 6
7.2570863 2.5101709 0.44725895 46
7.0631862 2.0614238 0.2998209 42
7.2468467 2.5052166 -0.35711956 58
7.0443835 2.0545974 -0.3845129 70
7.2460837 2.5035338 0.94137383 26
7.0616336 2.0582919 0.60052204 46
6.6549268 2.6685367 -0.29206467 49
7.3056741 1.7458625 -0.2622509 9
7.2498097 2.5019937 2.0550785 11
7.0616002 2.0556083 1.3410139 48
7.2393661 2.4969707 -0.17814159 65
2.9770732 0.86267662 -1.4453297 16
6.7007623 2.6747074 -0.12588501 46
7.047317 2.0407848 -0.21347237 58
2.9946361 1.0282283 -0.88633919 49
6.6952157 1.9375525 -1.3939519 23
7.2490239 2.4875669 5.4359436e-05 101
7.3246474 1.7355356 -0.087580681 10
7.2343278 2.481112 -1.189796 24
7.0288882 2.0327854 -0.93130207 45
6.6844907 2.6641555 0.041872978 42
7.039721 2.0345917 -0.042537689 61
7.2382941 2.4810653 -0.82416534 68
7.3134208 1.7301793 -0.70148849 9
7.2445788 2.4818034 0.17825031 56
7.3333373 1.7335401 0.087779999 9
7.2519755 2.4829221 -0.53595448 65
7.0252233 2.0264163 -0.59683752 68
6.7133508 2.6702323 0.21031761 36
7.0363421 2.0282903 0.12787342 101
6.7140412 2.6691456 -0.4630022 43
7.3336968 1.7309222 -0.43877888 6
7.2355752 2.4744883 0.44539833 43
7.0549769 2.0323281 0.29916954 43
7.255548 2.4799018 -0.35711861 71
7.0323176 2.0244746 -0.38346577 66
7.2510209 2.4769473 0.94088554 26
7.0496173 2.02812 0.59889507 49
6.6939187 2.6570888 -0.29336643 50
7.335072 1.7258425 -0.26308918 10
7.2548423 2.4754224 2.0540428 15
7.0460401 2.0244284 1.336709 46
7.2404685 2.4691057 -0.17795563 55
2.9765801 0.85128307 -1.4436393 13
6.7323747 2.6601205 -0.12630367 43
7.0351758 2.0106773 -0.21288967 54
2.9982076 1.0177679 -0.88633919 51
6.7094808 1.916326 -1.3955212 22
7.2311463 2.4532547 5.3405762e-05 63
7.3657165 1.7181358 -0.08799839 9
7.2092538 2.4444237 -1.1842628 13
7.0172133 2.0015697 -0.92877674 38
6.7276998 2.6528449 0.042081833 41
7.0275474 2.0045176 -0.042421341 60
7.2205453 2.446847 -0.82116652 38
7.3543258 1.712769 -0.70483398 8
7.2304721 2.4488006 0.17769146 40
7.3705096 1.7151852 0.088153839 9
7.2265811 2.4460807 -0.53344345 52
7.0092483 1.9953303 -0.59488487 101
6.7598348 2.661428 0.21148109 35
7.0279927 1.9993372 0.12759399 72
6.7530351 2.6573849 -0.46504784 45
7.3672185 1.7103543 -0.4404068 6
7.2181153 2.4390049 0.44377136 25
7.0470004 2.0020895 0.29851818 45
7.2267299 2.4405093 -0.35525799 41
7.0204787 1.9932261 -0.38241959 70
7.2374835 2.4427314 0.93796062 22
7.0374789 1.9980536 0.59726715 45
6.7329125 2.6453967 -0.29466915 49
7.3799958 1.709249 -0.26448441 11
7.2304912 2.4389701 2.0447245 11
7.0265603 1.9923077 1.331686 46
7.2111487 2.4310431 -0.17702484 47
2.82616 0.79706955 -1.3692594 5
6.7644305 2.6441622 -0.12672329 46
7.0155578 1.9772878 -0.21207619 101
2.9982657 1.005548 -0.88526058 43
6.7051339 1.8885298 -1.3931675 23
7.2173343 2.4191051 5.3405762e-05 58
7.406754 1.7004666 -0.088418007 9
7.1915116 2.410449 -1.1799583 13
7.0050578 1.9716859 -0.92625189 47
6.7741809 2.6438856 0.042315483 42
7.015595 1.9733334 -0.042304993 66
7.1955228 2.4090042 -0.81731081 48
7.3877282 1.6920276 -0.70743608 8
7.2090602 2.4121342 0.17694664 41
7.4079375 1.6952958 0.088525772 9
7.2090068 2.4107175 -0.53149033 49
7.0008197 1.9665365 -0.59358311 105
6.8026137 2.6508794 0.21252918 37
7.015677 1.9693933 0.12724495 101
6.7920251 2.6453905 -0.46709442 44
7.4159675 1.6944089 -0.44296455 6
7.2076488 2.4074664 0.44260788 32
7.0231586 1.9688454 0.29721546 49
7.2048869 2.4051452 -0.3537693 39
7.004313 1.9622478 -0.3811636 74
7.2271323 2.4111748 0.93552303 24
7.0252147 1.9681034 0.59564114 54
6.7681775 2.6320224 -0.29580879 52
7.4326882 1.6941357 -0.26615906 10
7.224298 2.4088249 2.0405836 9
7.0107369 1.9614043 1.3273811 45
7.1968293 2.3982687 -0.17646694 53
6.8104568 2.6361566 -0.12742043 42
7.0143743 1.9518666 -0.21184349 44
3.0015845 0.99559879 -0.88526058 33
6.7113585 1.8662853 -1.3931675 22
7.1911435 2.383832 5.3405762e-05 63
7.4474635 1.6838355 -0.08883667 9
7.1807055 2.3803711 -1.1768837 12
7.0000892 1.9452558 -0.92473698 33
6.8090291 2.6314983 0.042478561 40
7.0105367 1.9468451 -0.042234421 60
7.1845956 2.3788776 -0.81516886 48
7.4360356 1.6771603 -0.71152544 8
7.1942401 2.3806782 0.17638779 45
7.4486375 1.6786323 0.088945389 9
7.1866546 2.3767729 -0.52925777 44
6.968884 1.9326544 -0.59032917 63
6.8412089 2.6398191 0.21345997 37
7.0106063 1.9429111 0.12703514 103
6.8342814 2.635778 -0.46939754 52
7.4527116 1.6768212 -0.44482517 6
7.1928411 2.3760381 0.44121265 36
7.0142426 1.9412789 0.2965641 51
7.1900573 2.3737221 -0.35265255 47
6.9992309 1.935813 -0.38053513 51
7.2086968 2.3784847 0.93211079 24
7.0124898 1.9394808 0.59401321 45
6.8104386 2.6224885 -0.29727459 54
7.4733701 1.6773591 -0.26741505 10
7.2102294 2.3775973 2.0343714 11
7.0058227 1.9350004 1.3252296 44
7.1857524 2.3681297 -0.17600155 53
2.988831 0.82102633 -1.4453321 18
6.8569732 2.6266713 -0.1281271 44
6.9903054 1.9188995 -0.21092129 50
3.0050473 0.98511362 -0.88526249 24
6.7140546 1.8418093 -1.3923912 24
7.1804223 2.3524895 4.3869019e-05 48
7.4848266 1.6634712 -0.089219093 9
7.1668506 2.3466563 -1.1732035 20
6.9877076 1.9155674 -0.92222023 36
6.8555379 2.6220069 0.042702675 37
6.9941506 1.9160185 -0.042104721 56
7.1739631 2.3475962 -0.81303644 52
7.4768414 1.6589575 -0.71488047 9
7.1873088 2.3505797 0.17600727 50
7.4935069 1.661283 0.089402199 9
7.1797404 2.3467164 -0.52815151 42
6.9566998 1.9018426 -0.58870983 67
6.8769937 2.6247072 0.21426582 40
6.9945388 1.9108758 0.12660694 101
6.8774686 2.6235132 -0.4717083 49
7.4975142 1.6594224 -0.44715977 6
7.1859145 2.3459563 0.44027328 33
7.0017037 1.9115243 0.29574108 43
7.1717134 2.3399382 -0.35135937 59
6.9789777 1.9040065 -0.37907791 51
7.186769 2.3434596 0.92820168 23
6.9926362 1.9064226 0.59172535 48
6.8498902 2.6088862 -0.29858589 57
7.514607 1.6577077 -0.26868153 10
7.2042108 2.3463707 2.03022 12
6.9938912 1.9041429 1.3216324 44
7.1791787 2.3368268 -0.17563915 51
2.9951787 0.81153536 -1.4470224 15
6.9034963 2.6168942 -0.12882519 43
6.973804 1.8882222 -0.2102232 47
3.0011373 0.97224569 -0.88310623 21
6.7242303 1.8193846 -1.3931756 24
7.1733699 2.3224802 4.3869019e-05 56
6.779429 1.4818835 -0.080747604 3
7.1561961 2.3155394 -1.1701288 18
6.9713693 1.8849478 -0.91918993 34
6.8908362 2.6079693 0.042864799 39
6.9814878 1.8863802 -0.041988373 55
7.1556239 2.3139796 -0.81003761 53
7.5176082 1.6404886 -0.71822643 8
7.1726403 2.3180966 0.17544842 44
6.7880197 1.4800377 0.080924988 5
7.1651073 2.3142796 -0.52647686 39
6.9478965 1.8734012 -0.58740807 65
6.9160352 2.6119924 0.21519661 29
6.9741349 1.8791666 0.12611961 102
6.9127269 2.6093597 -0.4734993 44
7.5500846 1.6434345 -0.44995117 6
7.1712575 2.3135033 0.43887711 30
6.9851785 1.8808346 0.29476357 38
7.1608233 2.3087573 -0.35042858 57
6.98558 1.8796387 -0.37907887 42
7.1797881 2.3134933 0.92625141 24
6.9799972 1.8768277 0.59009838 36
6.8926148 2.5976462 -0.30005074 59
7.5516019 1.6382442 -0.26979733 9
7.1939673 2.3152876 2.0250454 11
6.9814935 1.8746133 1.3180456 50
7.164453 2.3044033 -0.17508125 54
2.9874854 0.79826832 -1.4419508 15
6.9350562 2.6012096 -0.1292429 39
6.9880805 1.8659282 -0.21045589 24
3.008182 0.96293736 -0.88418436 22
6.7191701 1.7928658 -1.3908224 25
7.1623826 2.2913299 4.3869019e-05 53
7.145411 2.2845287 -1.1670542 19
6.9779058 1.8606024 -0.91918945 15
6.9336114 2.5965261 0.043074608 36
7.1371408 2.2805123 -0.80703974 50
7.5700173 1.6242609 -0.72268772 6
7.1654515 2.2881775 0.17507553 39
7.1541343 2.2831907 -0.52508163 46
6.96631 2.603229 0.21647644 39
6.959188 2.5991788 -0.47605705 45
7.59092 1.6245894 -0.45204353 6
7.1564622 2.2811785 0.43748188 33
7.1536098 2.2788973 -0.34968376 58
6.9920993 1.8552413 -0.37907887 18
